ply
format ascii 1.0
element vertex 1322
property float x
property float y
property float z
property float value
end_header
3.285714 5.392512E-17 -2.428571 44.86065
3.428571 5.392512E-17 -2.428571 45.57225
3.571429 5.392512E-17 -2.428571 45.46486
3 5.075305E-17 -2.285714 34.09339
3.142857 5.075305E-17 -2.285714 35.99943
3.285714 5.075305E-17 -2.285714 37.33056
3.428572 5.075305E-17 -2.285714 38.01708
3.571429 5.075306E-17 -2.285714 38.02218
3.714286 5.075305E-17 -2.285714 37.34574
3 4.758098E-17 -2.142857 18.25665
3.142857 4.758098E-17 -2.142857 19.32602
3.285714 4.758098E-17 -2.142857 20.09145
3.428571 4.758098E-17 -2.142857 20.51286
3.571429 4.758099E-17 -2.142857 20.56778
3.714286 4.758098E-17 -2.142857 20.25316
3.857143 4.758098E-17 -2.142857 19.5858
3 4.440892E-17 -2 6.323859
3.142857 4.440892E-17 -2 6.711422
3.285714 4.440892E-17 -2 6.995074
3.428571 4.440892E-17 -2 7.160034
3.571429 4.440892E-17 -2 7.19746
3.714286 4.440892E-17 -2 7.105306
3.857143 4.440892E-17 -2 6.888474
4 4.440892E-17 -2 6.558382
5 4.440892E-17 -2 2.798652
4.857142 4.440892E-17 -2 3.337685
5 4.123685E-17 -1.857143 0.6485728
4.714286 4.440892E-17 -2 3.908835
4.857143 4.123685E-17 -1.857143 0.7717976
5 3.806479E-17 -1.714286 0.07037015
4.571428 4.440892E-17 -2 4.495317
4.714286 4.123686E-17 -1.857143 0.9018553
4.857142 3.806479E-17 -1.714286 0.08552512
5 3.489273E-17 -1.571429 0
4.428571 4.440892E-17 -2 5.076761
4.571428 4.123685E-17 -1.857143 1.034822
4.714286 3.806479E-17 -1.714286 0.1014166
4.857142 3.489272E-17 -1.571429 0
5 3.172066E-17 -1.428571 0
4.285714 4.440892E-17 -2 5.63031
4.428571 4.123685E-17 -1.857143 1.165985
4.571428 3.806479E-17 -1.714286 0.1175734
4.714286 3.489272E-17 -1.571429 0
4.857142 3.172066E-17 -1.428571 0
5 2.85486E-17 -1.285714 0
4.142857 4.440892E-17 -2 6.131985
4.285714 4.123685E-17 -1.857143 1.290102
4.428571 3.806479E-17 -1.714286 0.1334926
4.571428 3.489272E-17 -1.571429 0
4.714286 3.172066E-17 -1.428571 0
4.857143 2.854859E-17 -1.285714 0
5 2.537653E-17 -1.142857 0
4 4.440892E-17 -2 6.558382
4.142857 4.123685E-17 -1.857143 1.401729
4.285714 3.806479E-17 -1.714286 0.1550962
4.428571 3.489272E-17 -1.571429 0
4.571428 3.172066E-17 -1.428571 0
4.714286 2.854859E-17 -1.285714 0
4.857142 2.537653E-17 -1.142857 0
5 2.220447E-17 -1 0.01939501
4 4.440892E-17 -2 6.558382
4 4.123685E-17 -1.857143 1.495607
4.142857 4.123685E-17 -1.857143 1.401729
4 3.806479E-17 -1.714286 0.1923053
4.142857 3.806479E-17 -1.714286 0.1750072
4.285714 3.806479E-17 -1.714286 0.1550962
4 3.489272E-17 -1.571429 0
4.142857 3.489273E-17 -1.571429 0
4.285714 3.489272E-17 -1.571429 0
4.428572 3.489273E-17 -1.571429 0
4 3.172066E-17 -1.428571 0
4.142857 3.172066E-17 -1.428571 0
4.285714 3.172066E-17 -1.428571 0
4.428572 3.172066E-17 -1.428572 0
4.571429 3.172066E-17 -1.428571 0
4 2.85486E-17 -1.285714 0
4.142857 2.85486E-17 -1.285714 0
4.285714 2.85486E-17 -1.285714 0
4.428571 2.85486E-17 -1.285714 0
4.571428 2.85486E-17 -1.285714 0
4.714286 2.85486E-17 -1.285714 0
4 2.537653E-17 -1.142857 0.1410139
4.142858 2.537653E-17 -1.142857 0.09796725
4.285714 2.537653E-17 -1.142857 0.05882074
4.428571 2.537653E-17 -1.142857 0.01732327
4.571428 2.537653E-17 -1.142857 0
4.714286 2.537653E-17 -1.142857 0
4.857143 2.537653E-17 -1.142857 0
4 2.220447E-17 -1 0.544846
4.142857 2.220447E-17 -1 0.3981297
4.285714 2.220447E-17 -1 0.2856629
4.428571 2.220447E-17 -1 0.2010429
4.571428 2.220447E-17 -1 0.1248806
4.714286 2.220447E-17 -1 0.07655461
4.857142 2.220447E-17 -1 0.04384514
5 2.220447E-17 -1 0.01939501
4 4.440892E-17 -2 6.558382
3.857143 4.440892E-17 -2 6.888474
4 4.123685E-17 -1.857143 1.495607
3.714286 4.440892E-17 -2 7.105306
3.857143 4.123685E-17 -1.857143 1.567072
4 3.806479E-17 -1.714286 0.1923053
3.571429 4.440892E-17 -2 7.19746
3.714286 4.123686E-17 -1.857143 1.612435
3.857143 3.806479E-17 -1.714286 0.2305262
4 3.489273E-17 -1.571429 0
3.428571 4.440892E-17 -2 7.160034
3.571429 4.123685E-17 -1.857143 1.629305
3.714286 3.806479E-17 -1.714286 0.2366406
3.857143 3.489272E-17 -1.571429 0
4 3.172066E-17 -1.428571 0
3.285714 4.440892E-17 -2 6.995074
3.428571 4.123685E-17 -1.857143 1.616784
3.571429 3.806479E-17 -1.714286 0.2385454
3.714286 3.489272E-17 -1.571429 0
3.857143 3.172066E-17 -1.428571 0
4 2.85486E-17 -1.285714 0
3.142857 4.440892E-17 -2 6.711422
3.285714 4.123685E-17 -1.857143 1.575565
3.428571 3.806479E-17 -1.714286 0.2361401
3.571429 3.489272E-17 -1.571429 0
3.714286 3.172066E-17 -1.428571 0
3.857143 2.854859E-17 -1.285714 0.01108905
4 2.537653E-17 -1.142857 0.1410139
3 4.440892E-17 -2 6.323859
3.142857 4.123685E-17 -1.857143 1.507846
3.285714 3.806479E-17 -1.714286 0.2295562
3.428571 3.489272E-17 -1.571429 0
3.571429 3.172066E-17 -1.428571 0
3.714286 2.854859E-17 -1.285714 0.03783382
3.857143 2.537653E-17 -1.142857 0.1966758
4 2.220447E-17 -1 0.544846
5 2.220447E-17 -1 0.01939501
4.857142 2.220447E-17 -1 0.04384514
5 1.90324E-17 -0.857143 0.1144479
4.714286 2.220447E-17 -1 0.07655461
4.857143 1.90324E-17 -0.857143 0.1790818
5 1.586033E-17 -0.7142859 0.2524419
4.571428 2.220447E-17 -1 0.1248806
4.714286 1.90324E-17 -0.857143 0.2691157
4.857142 1.586033E-17 -0.7142859 0.3793716
5 1.268827E-17 -0.5714287 0.3556199
4.428571 2.220447E-17 -1 0.2010429
4.571428 1.90324E-17 -0.857143 0.4010331
4.714286 1.586033E-17 -0.7142859 0.556381
4.857142 1.268827E-17 -0.5714287 0.528783
5 9.516199E-18 -0.4285715 0.3307924
4.285714 2.220447E-17 -1 0.2856629
4.428571 1.90324E-17 -0.857143 0.5740824
4.571428 1.586033E-17 -0.7142859 0.8005245
4.714286 1.268827E-17 -0.5714287 0.7690742
4.857142 9.516198E-18 -0.4285715 0.4910098
5 6.344132E-18 -0.2857143 0.2011487
4.142857 2.220447E-17 -1 0.3981297
4.285714 1.90324E-17 -0.8571431 0.7983087
4.428571 1.586033E-17 -0.7142859 1.133438
4.571428 1.268827E-17 -0.5714287 1.096087
4.714286 9.516199E-18 -0.4285715 0.7131789
4.857143 6.344133E-18 -0.2857143 0.3011943
5 3.172066E-18 -0.1428572 0.07409687
4 2.220447E-17 -1 0.544846
4.142857 1.90324E-17 -0.857143 1.089642
4.285714 1.586033E-17 -0.7142859 1.560032
4.428571 1.268827E-17 -0.5714287 1.533229
4.571428 9.516199E-18 -0.4285715 1.015242
4.714286 6.344133E-18 -0.2857143 0.4400662
4.857142 3.172066E-18 -0.1428572 0.1171391
5 0 0 0
3 4.440892E-17 -2 6.323859
3 4.123685E-17 -1.857143 1.417153
3.142857 4.123685E-17 -1.857143 1.507846
3 3.806479E-17 -1.714286 0.2054514
3.142857 3.806479E-17 -1.714286 0.2191464
3.285714 3.806479E-17 -1.714286 0.2295562
3 3.489272E-17 -1.571429 0
3.142857 3.489273E-17 -1.571429 0
3.285714 3.489272E-17 -1.571429 0
3.428572 3.489273E-17 -1.571429 0
3 3.172066E-17 -1.428571 0.02277819
3.142857 3.172066E-17 -1.428571 0.01244618
3.285714 3.172066E-17 -1.428571 0.002847179
3.428571 3.172066E-17 -1.428572 0
3.571429 3.172066E-17 -1.428571 0
3 2.85486E-17 -1.285714 0.2140129
3.142857 2.85486E-17 -1.285714 0.1666579
3.285714 2.85486E-17 -1.285714 0.1265613
3.428572 2.85486E-17 -1.285714 0.09314216
3.571429 2.85486E-17 -1.285714 0.06571966
3.714286 2.85486E-17 -1.285714 0.03783382
3 2.537653E-17 -1.142857 0.9699765
3.142857 2.537653E-17 -1.142857 0.776176
3.285714 2.537653E-17 -1.142857 0.6111529
3.428571 2.537653E-17 -1.142857 0.4725531
3.571429 2.537653E-17 -1.142857 0.3599151
3.714286 2.537653E-17 -1.142857 0.2686442
3.857143 2.537653E-17 -1.142857 0.1966758
3 2.220447E-17 -1 3.082835
3.142857 2.220447E-17 -1 2.52278
3.285714 2.220447E-17 -1 2.032926
3.428571 2.220447E-17 -1 1.612146
3.571429 2.220447E-17 -1 1.25926
3.714286 2.220447E-17 -1 0.9682629
3.857143 2.220447E-17 -1 0.7318844
4 2.220447E-17 -1 0.544846
3 4.440892E-17 -2 6.323859
2.857143 4.440892E-17 -2 5.851916
3 4.123685E-17 -1.857143 1.417153
2.714286 4.440892E-17 -2 5.318174
2.857143 4.123685E-17 -1.857143 1.308038
3 3.806479E-17 -1.714286 0.2054514
2.571429 4.440892E-17 -2 4.746519
2.714286 4.123686E-17 -1.857143 1.185684
2.857143 3.806479E-17 -1.714286 0.1891544
3 3.489273E-17 -1.571429 0
2.428571 4.440892E-17 -2 4.160433
2.571429 4.123685E-17 -1.857143 1.055513
2.714286 3.806479E-17 -1.714286 0.1710256
2.857143 3.489272E-17 -1.571429 0
3 3.172066E-17 -1.428571 0.02277819
2.285714 4.440892E-17 -2 3.581388
2.428571 4.123685E-17 -1.857143 0.9228002
2.571429 3.806479E-17 -1.714286 0.150072
2.714286 3.489272E-17 -1.571429 0
2.857143 3.172066E-17 -1.428571 0.03360551
3 2.85486E-17 -1.285714 0.2140129
2.142857 4.440892E-17 -2 3.027709
2.285714 4.123685E-17 -1.857143 0.7923218
2.428571 3.806479E-17 -1.714286 0.07828955
2.571429 3.489272E-17 -1.571429 0
2.714286 3.172066E-17 -1.428571 0.04570061
2.857143 2.854859E-17 -1.285714 0.2707591
3 2.537653E-17 -1.142857 0.9699765
2 4.440892E-17 -2 2.513769
2.142857 4.123685E-17 -1.857143 0.6681066
2.285714 3.806479E-17 -1.714286 0.06238265
2.428571 3.489272E-17 -1.571429 0
2.571429 3.172066E-17 -1.428571 0.05978024
2.714286 2.854859E-17 -1.285714 0.3350649
2.857143 2.537653E-17 -1.142857 1.192824
3 2.220447E-17 -1 3.082835
2 4.440892E-17 -2 2.513769
2 4.123685E-17 -1.857143 0.553278
2.142857 4.123685E-17 -1.857143 0.6681066
2 3.806479E-17 -1.714286 0.00496215
2.142857 3.806479E-17 -1.714286 0.04718362
2.285714 3.806479E-17 -1.714286 0.06238265
2 3.489272E-17 -1.571429 0.004019302
2.142857 3.489273E-17 -1.571429 0.0009233456
2.285714 3.489272E-17 -1.571429 0
2.428571 3.489273E-17 -1.571429 0
2 3.172066E-17 -1.428571 0.1232182
2.142857 3.172066E-17 -1.428571 0.107341
2.285714 3.172066E-17 -1.428571 0.09008466
2.428571 3.172066E-17 -1.428572 0.07468567
2.571429 3.172066E-17 -1.428571 0.05978024
2 2.85486E-17 -1.285714 0.7425445
2.142857 2.85486E-17 -1.285714 0.6561387
2.285714 2.85486E-17 -1.285714 0.5698269
2.428571 2.85486E-17 -1.285714 0.4855207
2.571429 2.85486E-17 -1.285714 0.4073124
2.714286 2.85486E-17 -1.285714 0.3350649
2 2.537653E-17 -1.142857 2.936558
2.142857 2.537653E-17 -1.142857 2.632377
2.285714 2.537653E-17 -1.142857 2.320536
2.428571 2.537653E-17 -1.142857 2.013391
2.571429 2.537653E-17 -1.142857 1.718103
2.714285 2.537653E-17 -1.142857 1.442601
2.857143 2.537653E-17 -1.142857 1.192824
2 2.220447E-17 -1 8.117568
2.142857 2.220447E-17 -1 7.405547
2.285714 2.220447E-17 -1 6.651202
2.428571 2.220447E-17 -1 5.881592
2.571429 2.220447E-17 -1 5.121236
2.714286 2.220447E-17 -1 4.391014
2.857143 2.220447E-17 -1 3.707544
3 2.220447E-17 -1 3.082835
4 2.220447E-17 -1 0.544846
4 1.90324E-17 -0.857143 1.463309
4.142857 1.90324E-17 -0.857143 1.089642
4 1.586033E-17 -0.7142859 2.796724
4.142857 1.586033E-17 -0.7142859 2.107465
4.285714 1.586033E-17 -0.7142859 1.560032
4 1.268827E-17 -0.5714287 3.738698
4.142857 1.268827E-17 -0.5714287 2.832029
4.285714 1.268827E-17 -0.5714287 2.104331
4.428572 1.268827E-17 -0.5714287 1.533229
4 9.5162E-18 -0.4285715 3.429001
4.142857 9.5162E-18 -0.4285715 2.598686
4.285714 9.5162E-18 -0.4285715 1.934717
4.428572 9.5162E-18 -0.4285715 1.415013
4.571429 9.5162E-18 -0.4285715 1.015242
4 6.344133E-18 -0.2857144 2.131288
4.142857 6.344133E-18 -0.2857144 1.614969
4.285714 6.344133E-18 -0.2857144 1.201131
4.428571 6.344133E-18 -0.2857144 0.8769166
4.571428 6.344133E-18 -0.2857144 0.6290748
4.714286 6.344133E-18 -0.2857144 0.4400662
4 3.172067E-18 -0.1428572 0.886754
4.142858 3.172067E-18 -0.1428572 0.6695117
4.285714 3.172067E-18 -0.1428572 0.4962795
4.428571 3.172067E-18 -0.1428572 0.3601915
4.571428 3.172067E-18 -0.1428572 0.2541443
4.714286 3.172067E-18 -0.1428572 0.1749989
4.857143 3.172067E-18 -0.1428572 0.1171391
4 0 0 0.2417005
4.142857 0 0 0.1790908
4.285714 0 0 0.127471
4.428571 0 0 0.08847043
4.571428 0 0 0.0583168
4.714286 0 0 0.03360003
4.857142 0 0 0.01254136
5 0 0 0
4 2.220447E-17 -1 0.544846
3.857143 2.220447E-17 -1 0.7318844
4 1.90324E-17 -0.857143 1.463309
3.714286 2.220447E-17 -1 0.9682629
3.857143 1.90324E-17 -0.857143 1.931124
4 1.586033E-17 -0.7142859 2.796724
3.571429 2.220447E-17 -1 1.25926
3.714286 1.90324E-17 -0.857143 2.506871
3.857143 1.586033E-17 -0.7142859 3.648142
4 1.268827E-17 -0.5714287 3.738698
3.428571 2.220447E-17 -1 1.612146
3.571429 1.90324E-17 -0.857143 3.198998
3.714286 1.586033E-17 -0.7142859 4.678098
3.857143 1.268827E-17 -0.5714287 4.849503
4 9.516199E-18 -0.4285715 3.429001
3.285714 2.220447E-17 -1 2.032926
3.428571 1.90324E-17 -0.857143 4.016881
3.571429 1.586033E-17 -0.7142859 5.897823
3.714286 1.268827E-17 -0.5714287 6.181011
3.857143 9.516198E-18 -0.4285715 4.44634
4 6.344132E-18 -0.2857143 2.131288
3.142857 2.220447E-17 -1 2.52278
3.285714 1.90324E-17 -0.8571431 4.963766
3.428571 1.586033E-17 -0.7142859 7.311184
3.571429 1.268827E-17 -0.5714287 7.741851
3.714286 9.516199E-18 -0.4285715 5.658224
3.857143 6.344133E-18 -0.2857143 2.763895
4 3.172066E-18 -0.1428572 0.886754
3 2.220447E-17 -1 3.082835
3.142857 1.90324E-17 -0.857143 6.037093
3.285714 1.586033E-17 -0.7142859 8.912704
3.428571 1.268827E-17 -0.5714287 9.529947
3.571429 9.516199E-18 -0.4285715 7.071825
3.714286 6.344133E-18 -0.2857143 3.5207
3.857143 3.172066E-18 -0.1428572 1.153414
4 0 0 0.2417005
5 0 0 0
4.857142 0 0 0.01254136
5 -3.172066E-18 0.1428571 0
4.714286 0 0 0.03360003
4.857143 -3.172066E-18 0.1428571 0
5 -6.344132E-18 0.2857143 0
4.571428 0 0 0.0583168
4.714286 -3.172066E-18 0.1428571 0
4.857142 -6.344132E-18 0.2857143 0
5 -9.516197E-18 0.4285714 0
4.428571 0 0 0.08847043
4.571428 -3.172066E-18 0.1428571 0
4.714286 -6.344132E-18 0.2857143 0
4.857142 -9.516197E-18 0.4285714 0
5 -1.268826E-17 0.5714285 0
4.285714 0 0 0.127471
4.428571 -3.172066E-18 0.1428571 0
4.571428 -6.344132E-18 0.2857143 0
4.714286 -9.516197E-18 0.4285714 0
4.857142 -1.268826E-17 0.5714285 0
5 -1.586033E-17 0.7142857 0
4.142857 0 0 0.1790908
4.285714 -3.172066E-18 0.1428571 0
4.428571 -6.344132E-18 0.2857143 0
4.571428 -9.516197E-18 0.4285714 0
4.714286 -1.268826E-17 0.5714285 0
4.857143 -1.586033E-17 0.7142857 0
5 -1.903239E-17 0.8571428 0.0756814
4 0 0 0.2417005
4.142857 -3.172066E-18 0.1428571 0.008443641
4.285714 -6.344132E-18 0.2857143 0
4.428571 -9.516197E-18 0.4285714 0
4.571428 -1.268826E-17 0.5714285 0
4.714286 -1.586033E-17 0.7142857 0
4.857142 -1.903239E-17 0.8571428 0.07648563
5 -2.220446E-17 0.9999999 0.737375
3 2.220447E-17 -1 3.082835
2.857143 2.220447E-17 -1 3.707544
3 1.90324E-17 -0.857143 7.227502
2.714286 2.220447E-17 -1 4.391014
2.857143 1.90324E-17 -0.857143 8.517906
3 1.586033E-17 -0.7142859 12.60168
2.571429 2.220447E-17 -1 5.121236
2.714286 1.90324E-17 -0.857143 9.883271
2.857143 1.586033E-17 -0.7142859 14.6194
3 1.268827E-17 -0.5714287 16.03226
2.428571 2.220447E-17 -1 5.881592
2.571429 1.90324E-17 -0.857143 11.29078
2.714286 1.586033E-17 -0.7142859 16.68631
2.857143 1.268827E-17 -0.5714287 18.42859
3 9.516199E-18 -0.4285715 14.48904
2.285714 2.220447E-17 -1 6.651202
2.428571 1.90324E-17 -0.857143 12.70067
2.571429 1.586033E-17 -0.7142859 18.74005
2.714286 1.268827E-17 -0.5714287 20.82866
2.857143 9.516198E-18 -0.4285715 16.60031
3 6.344132E-18 -0.2857143 9.073947
2.142857 2.220447E-17 -1 7.405547
2.285714 1.90324E-17 -0.8571431 14.06787
2.428571 1.586033E-17 -0.7142859 20.71131
2.571429 1.268827E-17 -0.5714287 23.14989
2.714286 9.516199E-18 -0.4285715 18.69595
2.857143 6.344133E-18 -0.2857143 10.40565
3 3.172066E-18 -0.1428572 3.855751
2 2.220447E-17 -1 8.117568
2.142857 1.90324E-17 -0.857143 15.34408
2.285714 1.586033E-17 -0.7142859 22.52766
2.428571 1.268827E-17 -0.5714287 25.3046
2.571429 9.516199E-18 -0.4285715 20.70013
2.714286 6.344133E-18 -0.2857143 11.72997
2.857143 3.172066E-18 -0.1428572 4.437858
3 0 0 1.096649
3 2.220447E-17 -1 3.082835
3 1.90324E-17 -0.857143 7.227502
3.142857 1.90324E-17 -0.857143 6.037093
3 1.586033E-17 -0.7142859 12.60168
3.142857 1.586033E-17 -0.7142859 10.68575
3.285714 1.586033E-17 -0.7142859 8.912704
3 1.268827E-17 -0.5714287 16.03226
3.142857 1.268827E-17 -0.5714287 13.71272
3.285714 1.268827E-17 -0.5714287 11.53021
3.428572 1.268827E-17 -0.5714287 9.529947
3 9.5162E-18 -0.4285715 14.48904
3.142857 9.5162E-18 -0.4285715 12.43021
3.285714 9.5162E-18 -0.4285715 10.48088
3.428571 9.5162E-18 -0.4285715 8.684792
3.571429 9.5162E-18 -0.4285715 7.071825
3 6.344133E-18 -0.2857144 9.073947
3.142857 6.344133E-18 -0.2857144 7.777512
3.285714 6.344133E-18 -0.2857144 6.547983
3.428572 6.344133E-18 -0.2857144 5.418419
3.571429 6.344133E-18 -0.2857144 4.405885
3.714286 6.344133E-18 -0.2857144 3.5207
3 3.172067E-18 -0.1428572 3.855751
3.142857 3.172067E-18 -0.1428572 3.293014
3.285714 3.172067E-18 -0.1428572 2.765222
3.428571 3.172067E-18 -0.1428572 2.281478
3.571429 3.172067E-18 -0.1428572 1.8498
3.714286 3.172067E-18 -0.1428572 1.473671
3.857143 3.172067E-18 -0.1428572 1.153414
3 0 0 1.096649
3.142857 0 0 0.9321064
3.285714 0 0 0.7788147
3.428571 0 0 0.6387737
3.571429 0 0 0.515518
3.714286 0 0 0.4080249
3.857143 0 0 0.3170296
4 0 0 0.2417005
4 0 0 0.2417005
4 -3.172065E-18 0.1428571 0.02608404
4.142857 -3.172065E-18 0.1428571 0.008443641
4 -6.344131E-18 0.2857142 0
4.142857 -6.344131E-18 0.2857142 0
4.285714 -6.344131E-18 0.2857142 0
4 -9.516196E-18 0.4285714 0
4.142857 -9.516197E-18 0.4285714 0
4.285714 -9.516197E-18 0.4285713 0
4.428572 -9.516196E-18 0.4285714 0
4 -1.268826E-17 0.5714285 0
4.142857 -1.268826E-17 0.5714285 0
4.285714 -1.268826E-17 0.5714285 0
4.428572 -1.268826E-17 0.5714285 0
4.571429 -1.268826E-17 0.5714285 0
4 -1.586033E-17 0.7142857 0
4.142857 -1.586033E-17 0.7142856 0
4.285714 -1.586033E-17 0.7142856 0
4.428571 -1.586033E-17 0.7142856 0
4.571428 -1.586033E-17 0.7142856 0
4.714286 -1.586033E-17 0.7142857 0
4 -1.903239E-17 0.8571428 0.06127288
4.142858 -1.903239E-17 0.8571428 0.06070564
4.285714 -1.903239E-17 0.8571427 0.05996335
4.428571 -1.903239E-17 0.8571428 0.06561919
4.571428 -1.903239E-17 0.8571428 0.07041536
4.714286 -1.903239E-17 0.8571428 0.07500296
4.857143 -1.903239E-17 0.8571428 0.07648563
4 -2.220446E-17 0.9999999 0.6143988
4.142857 -2.220446E-17 0.9999999 0.6434985
4.285714 -2.220446E-17 0.9999999 0.6743569
4.428571 -2.220446E-17 0.9999999 0.703088
4.571428 -2.220446E-17 0.9999999 0.7250568
4.714286 -2.220446E-17 0.9999999 0.7382408
4.857142 -2.220446E-17 0.9999999 0.7450315
5 -2.220446E-17 0.9999999 0.7373788
4 0 0 0.2417005
3.857143 0 0 0.3170296
4 -3.172066E-18 0.1428571 0.02608404
3.714286 0 0 0.4080249
3.857143 -3.172066E-18 0.1428571 0.04337679
4 -6.344132E-18 0.2857143 0
3.571429 0 0 0.515518
3.714286 -3.172066E-18 0.1428571 0.06383213
3.857143 -6.344132E-18 0.2857143 0
4 -9.516197E-18 0.4285714 0
3.428571 0 0 0.6387737
3.571429 -3.172066E-18 0.1428571 0.08773424
3.714286 -6.344132E-18 0.2857143 0
3.857143 -9.516197E-18 0.4285714 0
4 -1.268826E-17 0.5714285 0
3.285714 0 0 0.7788147
3.428571 -3.172066E-18 0.1428571 0.1124159
3.571429 -6.344132E-18 0.2857143 0
3.714286 -9.516197E-18 0.4285714 0
3.857143 -1.268826E-17 0.5714285 0
4 -1.586033E-17 0.7142857 0
3.142857 0 0 0.9321064
3.285714 -3.172066E-18 0.1428571 0.1396495
3.428571 -6.344132E-18 0.2857143 0
3.571429 -9.516197E-18 0.4285714 0
3.714286 -1.268826E-17 0.5714285 0
3.857143 -1.586033E-17 0.7142857 0
4 -1.903239E-17 0.8571428 0.06127288
3 0 0 1.096649
3.142857 -3.172066E-18 0.1428571 0.1699409
3.285714 -6.344132E-18 0.2857143 0
3.428571 -9.516197E-18 0.4285714 0
3.571429 -1.268826E-17 0.5714285 0
3.714286 -1.586033E-17 0.7142857 0
3.857143 -1.903239E-17 0.8571428 0.06388164
4 -2.220446E-17 0.9999999 0.6143988
5 -2.220446E-17 0.9999999 0.737375
4.857142 -2.220446E-17 0.9999999 0.7450278
5 -2.537652E-17 1.142857 3.763434
4.714286 -2.220446E-17 0.9999999 0.7382369
4.857143 -2.537652E-17 1.142857 3.816267
5 -2.854859E-17 1.285714 12.7689
4.571428 -2.220446E-17 0.9999999 0.725053
4.714286 -2.537653E-17 1.142857 3.812243
4.857142 -2.854859E-17 1.285714 13.03307
5 -3.172066E-17 1.428571 29.18063
4.428571 -2.220446E-17 0.9999999 0.7030842
4.571428 -2.537652E-17 1.142857 3.743235
4.714286 -2.854859E-17 1.285714 13.07332
4.857142 -3.172066E-17 1.428571 30.00179
5 -3.489272E-17 1.571429 45.98564
4.285714 -2.220446E-17 0.9999999 0.6743569
4.428571 -2.537652E-17 1.142857 3.616205
4.571428 -2.854859E-17 1.285714 12.89057
4.714286 -3.172066E-17 1.428571 30.31991
4.857142 -3.489272E-17 1.571428 47.7878
5 -3.806479E-17 1.714286 51.34861
4.142857 -2.220446E-17 0.9999999 0.6434956
4.285714 -2.537652E-17 1.142857 3.445838
4.428571 -2.854859E-17 1.285714 12.50003
4.571428 -3.172066E-17 1.428571 30.1224
4.714286 -3.489272E-17 1.571428 48.8331
4.857143 -3.806479E-17 1.714286 54.18602
5 -4.123685E-17 1.857143 41.94878
4 -2.220446E-17 0.9999999 0.6143988
4.142857 -2.537652E-17 1.142857 3.243655
4.285714 -2.854859E-17 1.285714 11.92773
4.428571 -3.172066E-17 1.428571 29.42414
4.571428 -3.489272E-17 1.571428 49.08301
4.714286 -3.806479E-17 1.714286 56.25751
4.857142 -4.123685E-17 1.857143 45.15485
5 -4.440892E-17 2 25.67283
2 2.220447E-17 -1 8.117568
2 1.90324E-17 -0.857143 16.48037
2.142857 1.90324E-17 -0.857143 15.34408
2 1.586033E-17 -0.7142859 25.41622
2.142857 1.586033E-17 -0.7142859 24.11784
2.285714 1.586033E-17 -0.7142859 22.52766
2 1.268827E-17 -0.5714287 29.93562
2.142857 1.268827E-17 -0.5714287 28.77229
2.285714 1.268827E-17 -0.5714287 27.20567
2.428571 1.268827E-17 -0.5714287 25.3046
2 9.5162E-18 -0.4285715 26.27914
2.142857 9.5162E-18 -0.4285715 25.38694
2.285714 9.5162E-18 -0.4285715 24.11924
2.428571 9.5162E-18 -0.4285715 22.53365
2.571429 9.5162E-18 -0.4285715 20.70013
2 6.344133E-18 -0.2857144 16.55949
2.142857 6.344133E-18 -0.2857144 15.98423
2.285714 6.344133E-18 -0.2857144 15.17315
2.428571 6.344133E-18 -0.2857144 14.16325
2.571429 6.344133E-18 -0.2857144 12.99918
2.714286 6.344133E-18 -0.2857144 11.72997
2 3.172067E-18 -0.1428572 7.236534
2.142857 3.172067E-18 -0.1428572 6.954052
2.285714 3.172067E-18 -0.1428572 6.573401
2.428571 3.172067E-18 -0.1428572 6.110798
2.571429 3.172067E-18 -0.1428572 5.586302
2.714285 3.172067E-18 -0.1428572 5.021461
2.857143 3.172067E-18 -0.1428572 4.437858
2 0 0 2.13565
2.142857 0 0 2.041105
2.285714 0 0 1.919697
2.428571 0 0 1.775034
2.571429 0 0 1.614158
2.714286 0 0 1.4435
2.857143 0 0 1.268468
3 0 0 1.096649
2 2.220447E-17 -1 8.117568
1.857143 2.220447E-17 -1 8.759163
2 1.90324E-17 -0.857143 16.48037
1.714286 2.220447E-17 -1 9.3029
1.857143 1.90324E-17 -0.857143 17.43021
2 1.586033E-17 -0.7142859 25.41622
1.571428 2.220447E-17 -1 9.723898
1.714286 1.90324E-17 -0.857143 18.15253
1.857143 1.586033E-17 -0.7142859 26.3674
2 1.268827E-17 -0.5714287 29.93562
1.428571 2.220447E-17 -1 10.00172
1.571428 1.90324E-17 -0.857143 18.61448
1.714286 1.586033E-17 -0.7142859 26.92986
1.857143 1.268827E-17 -0.5714287 30.64388
2 9.516199E-18 -0.4285715 26.27914
1.285714 2.220447E-17 -1 10.12195
1.428571 1.90324E-17 -0.857143 18.79396
1.571428 1.586033E-17 -0.7142859 27.07899
1.714286 1.268827E-17 -0.5714287 30.86609
1.857143 9.516198E-18 -0.4285715 26.75505
2 6.344132E-18 -0.2857143 16.55949
1.142857 2.220447E-17 -1 10.07748
1.285714 1.90324E-17 -0.8571431 18.68132
1.428571 1.586033E-17 -0.7142859 26.80879
1.571428 1.268827E-17 -0.5714287 30.59426
1.714286 9.516199E-18 -0.4285715 26.79371
1.857143 6.344133E-18 -0.2857143 16.87243
2 3.172066E-18 -0.1428572 7.236534
0.9999999 2.220447E-17 -1 9.869161
1.142857 1.90324E-17 -0.857143 18.28019
1.285714 1.586033E-17 -0.7142859 26.13222
1.428571 1.268827E-17 -0.5714287 29.84367
1.571428 9.516199E-18 -0.4285715 26.39549
1.714286 6.344133E-18 -0.2857143 16.90904
1.857143 3.172066E-18 -0.1428572 7.40616
2 0 0 2.13565
0.9999999 2.220447E-17 -1 9.869161
0.9999999 1.90324E-17 -0.857143 17.60739
1.142857 1.90324E-17 -0.857143 18.28019
0.9999999 1.586033E-17 -0.7142859 23.69928
1.142857 1.586033E-17 -0.7142859 25.08021
1.285714 1.586033E-17 -0.7142859 26.13222
0.9999999 1.268827E-17 -0.5714287 25.18263
1.142857 1.268827E-17 -0.5714287 27.07445
1.285714 1.268827E-17 -0.5714287 28.65168
1.428571 1.268827E-17 -0.5714287 29.84367
0.9999999 9.5162E-18 -0.4285715 21.12897
1.142857 9.5162E-18 -0.4285715 22.88641
1.285714 9.5162E-18 -0.4285715 24.39331
1.428571 9.5162E-18 -0.4285715 25.58182
1.571429 9.5162E-18 -0.4285715 26.39549
0.9999999 6.344133E-18 -0.2857144 13.36774
1.142857 6.344133E-18 -0.2857144 14.47491
1.285714 6.344133E-18 -0.2857144 15.42143
1.428571 6.344133E-18 -0.2857144 16.16451
1.571428 6.344133E-18 -0.2857144 16.66877
1.714286 6.344133E-18 -0.2857144 16.90904
0.9999999 3.172067E-18 -0.1428572 6.028283
1.142857 3.172067E-18 -0.1428572 6.498012
1.285714 3.172067E-18 -0.1428572 6.891634
1.428571 3.172067E-18 -0.1428572 7.191252
1.571428 3.172067E-18 -0.1428572 7.38259
1.714286 3.172067E-18 -0.1428572 7.456119
1.857143 3.172067E-18 -0.1428572 7.40616
0.9999999 0 0 1.850871
1.142857 0 0 1.983865
1.285714 0 0 2.092156
1.428571 0 0 2.170784
1.571428 0 0 2.216001
1.714286 0 0 2.224678
1.857143 0 0 2.198098
2 0 0 2.13565
4 -2.220446E-17 0.9999999 0.6143988
4 -2.537652E-17 1.142857 3.025404
4.142857 -2.537652E-17 1.142857 3.243655
4 -2.854859E-17 1.285714 10.39316
4.142857 -2.854859E-17 1.285714 11.20899
4.285714 -2.854859E-17 1.285714 11.92773
4 -3.172066E-17 1.428571 24.87952
4.142857 -3.172066E-17 1.428571 26.72289
4.285714 -3.172066E-17 1.428571 28.26758
4.428572 -3.172066E-17 1.428571 29.42414
4 -3.489272E-17 1.571428 42.53807
4.142857 -3.489272E-17 1.571428 45.15448
4.285714 -3.489272E-17 1.571428 47.18702
4.428572 -3.489272E-17 1.571428 48.52219
4.571429 -3.489272E-17 1.571429 49.08301
4 -3.806479E-17 1.714286 53.45925
4.142857 -3.806479E-17 1.714285 55.72955
4.285714 -3.806479E-17 1.714286 57.20296
4.428571 -3.806479E-17 1.714286 57.7851
4.571428 -3.806479E-17 1.714285 57.47076
4.714286 -3.806479E-17 1.714286 56.25751
4 -4.123685E-17 1.857143 50.54188
4.142858 -4.123685E-17 1.857143 51.5573
4.285714 -4.123685E-17 1.857143 51.8015
4.428571 -4.123685E-17 1.857143 51.24626
4.571428 -4.123686E-17 1.857143 49.90746
4.714286 -4.123685E-17 1.857143 47.84634
4.857143 -4.123685E-17 1.857143 45.15485
4 -4.440892E-17 2 35.87571
4.142857 -4.440892E-17 2 35.88655
4.285714 -4.440892E-17 2 35.32124
4.428571 -4.440892E-17 2 34.20995
4.571428 -4.440892E-17 2 32.6078
4.714286 -4.440892E-17 2 30.5899
4.857142 -4.440892E-17 2 28.24572
5 -4.440892E-17 2 25.67279
5 -4.440892E-17 2 25.67283
4.857142 -4.440892E-17 2 28.24582
5 -4.758098E-17 2.142857 11.74795
4.714286 -4.440892E-17 2 30.58994
4.857143 -4.758098E-17 2.142857 13.18132
5 -5.075305E-17 2.285714 3.898816
4.571428 -4.440892E-17 2 32.60786
4.714286 -4.758099E-17 2.142857 14.54931
4.857142 -5.075306E-17 2.285714 4.438849
5 -5.392512E-17 2.428571 0.8842008
4.428571 -4.440892E-17 2 34.20995
4.571428 -4.758098E-17 2.142857 15.79669
4.714286 -5.075305E-17 2.285714 4.968818
4.857142 -5.392512E-17 2.428571 1.020912
5 -5.709719E-17 2.571429 0.1276495
4.285714 -4.440892E-17 2 35.32124
4.428571 -4.758098E-17 2.142857 16.8686
4.571428 -5.075305E-17 2.285714 5.465089
4.714286 -5.392512E-17 2.428571 1.156323
4.857142 -5.709719E-17 2.571429 0.1506094
5 -6.026925E-17 2.714286 0
4.142857 -4.440892E-17 2 35.88659
4.285714 -4.758098E-17 2.142857 17.71466
4.428571 -5.075305E-17 2.285714 5.906971
4.571428 -5.392512E-17 2.428571 1.286057
4.714286 -5.709719E-17 2.571429 0.1730394
4.857143 -6.026925E-17 2.714285 0
5 -6.344132E-17 2.857143 0
4 -4.440892E-17 2 35.87571
4.142857 -4.758098E-17 2.142857 18.29273
4.285714 -5.075305E-17 2.285714 6.275473
4.428571 -5.392512E-17 2.428571 1.402722
4.571428 -5.709719E-17 2.571429 0.1949603
4.714286 -6.026925E-17 2.714286 0
4.857142 -6.344132E-17 2.857143 0
5 -6.661338E-17 3 0
3 0 0 1.096649
3 -3.172065E-18 0.1428571 0.2019168
3.142857 -3.172065E-18 0.1428571 0.1699409
3 -6.344131E-18 0.2857142 0
3.142857 -6.344131E-18 0.2857142 0
3.285714 -6.344131E-18 0.2857142 0
3 -9.516196E-18 0.4285714 0
3.142857 -9.516197E-18 0.4285714 0
3.285714 -9.516197E-18 0.4285713 0
3.428572 -9.516196E-18 0.4285714 0
3 -1.268826E-17 0.5714285 0
3.142857 -1.268826E-17 0.5714285 0
3.285714 -1.268826E-17 0.5714285 0
3.428571 -1.268826E-17 0.5714285 0
3.571429 -1.268826E-17 0.5714285 0
3 -1.586033E-17 0.7142857 0.04216794
3.142857 -1.586033E-17 0.7142856 0.03075666
3.285714 -1.586033E-17 0.7142856 0.02167729
3.428572 -1.586033E-17 0.7142856 0.01383642
3.571429 -1.586033E-17 0.7142856 0.00709786
3.714286 -1.586033E-17 0.7142857 0
3 -1.903239E-17 0.8571428 0.2379944
3.142857 -1.903239E-17 0.8571428 0.180006
3.285714 -1.903239E-17 0.8571427 0.1337896
3.428571 -1.903239E-17 0.8571428 0.1019607
3.571429 -1.903239E-17 0.8571428 0.0830936
3.714286 -1.903239E-17 0.8571428 0.07069905
3.857143 -1.903239E-17 0.8571428 0.06388164
3 -2.220446E-17 0.9999999 0.9249364
3.142857 -2.220446E-17 0.9999999 0.7848191
3.285714 -2.220446E-17 0.9999999 0.6840973
3.428571 -2.220446E-17 0.9999999 0.6210788
3.571429 -2.220446E-17 0.9999999 0.590909
3.714286 -2.220446E-17 0.9999999 0.5852542
3.857143 -2.220446E-17 0.9999999 0.5924841
4 -2.220446E-17 0.9999999 0.6144016
3 0 0 1.096649
2.857143 0 0 1.268468
3 -3.172066E-18 0.1428571 0.2019168
2.714286 0 0 1.4435
2.857143 -3.172066E-18 0.1428571 0.2357384
3 -6.344132E-18 0.2857143 0
2.571429 0 0 1.614158
2.714286 -3.172066E-18 0.1428571 0.2704897
2.857143 -6.344132E-18 0.2857143 0
3 -9.516197E-18 0.4285714 0
2.428571 0 0 1.775034
2.571429 -3.172066E-18 0.1428571 0.3050725
2.714286 -6.344132E-18 0.2857143 0.01344078
2.857143 -9.516197E-18 0.4285714 0
3 -1.268826E-17 0.5714285 0
2.285714 0 0 1.919697
2.428571 -3.172066E-18 0.1428571 0.3373717
2.571429 -6.344132E-18 0.2857143 0.02520585
2.714286 -9.516197E-18 0.4285714 0
2.857143 -1.268826E-17 0.5714285 0
3 -1.586033E-17 0.7142857 0.04216794
2.142857 0 0 2.041105
2.285714 -3.172066E-18 0.1428571 0.3679177
2.428571 -6.344132E-18 0.2857143 0.03161789
2.571429 -9.516197E-18 0.4285714 0
2.714286 -1.268826E-17 0.5714285 0
2.857143 -1.586033E-17 0.7142857 0.0561163
3 -1.903239E-17 0.8571428 0.2379944
2 0 0 2.13565
2.142857 -3.172066E-18 0.1428571 0.3936511
2.285714 -6.344132E-18 0.2857143 0.03621384
2.428571 -9.516197E-18 0.4285714 0
2.571429 -1.268826E-17 0.5714285 0.004934719
2.714286 -1.586033E-17 0.7142857 0.07364699
2.857143 -1.903239E-17 0.8571428 0.3060292
3 -2.220446E-17 0.9999999 0.9249364
4 -2.220446E-17 0.9999999 0.6143988
3.857143 -2.220446E-17 0.9999999 0.5924811
4 -2.537652E-17 1.142857 3.025404
3.714286 -2.220446E-17 0.9999999 0.5852515
3.857143 -2.537652E-17 1.142857 2.810521
4 -2.854859E-17 1.285714 10.39316
3.571429 -2.220446E-17 0.9999999 0.5909063
3.714286 -2.537653E-17 1.142857 2.619387
3.857143 -2.854859E-17 1.285714 9.529308
4 -3.172066E-17 1.428571 24.87952
3.428571 -2.220446E-17 0.9999999 0.6210765
3.571429 -2.537652E-17 1.142857 2.469884
3.714286 -2.854859E-17 1.285714 8.671666
3.857143 -3.172066E-17 1.428571 22.83541
4 -3.489272E-17 1.571429 42.53807
3.285714 -2.220446E-17 0.9999999 0.6840973
3.428571 -2.537652E-17 1.142857 2.382665
3.571429 -2.854859E-17 1.285714 7.873603
3.714286 -3.172066E-17 1.428571 20.69932
3.857143 -3.489272E-17 1.571428 39.4707
4 -3.806479E-17 1.714286 53.45925
3.142857 -2.220446E-17 0.9999999 0.7848166
3.285714 -2.537652E-17 1.142857 2.375888
3.428571 -2.854859E-17 1.285714 7.181813
3.571429 -3.172066E-17 1.428571 18.57907
3.714286 -3.489272E-17 1.571428 36.10522
3.857143 -3.806479E-17 1.714286 50.50335
4 -4.123685E-17 1.857143 50.54188
3 -2.220446E-17 0.9999999 0.9249364
3.142857 -2.537652E-17 1.142857 2.461514
3.285714 -2.854859E-17 1.285714 6.642373
3.428571 -3.172066E-17 1.428571 16.57428
3.571429 -3.489272E-17 1.571428 32.59513
3.714286 -3.806479E-17 1.714286 47.00562
3.857143 -4.123685E-17 1.857143 48.77216
4 -4.440892E-17 2 35.87571
2 0 0 2.13565
1.857143 0 0 2.198098
2 -3.172066E-18 0.1428571 0.4143347
1.714286 0 0 2.224678
1.857143 -3.172066E-18 0.1428571 0.429031
2 -6.344132E-18 0.2857143 0.04276204
1.571428 0 0 2.216001
1.714286 -3.172066E-18 0.1428571 0.4370568
1.857143 -6.344132E-18 0.2857143 0.04529079
2 -9.516197E-18 0.4285714 0
1.428571 0 0 2.170784
1.571428 -3.172066E-18 0.1428571 0.4371459
1.714286 -6.344132E-18 0.2857143 0.0462603
1.857143 -9.516197E-18 0.4285714 0
2 -1.268826E-17 0.5714285 0.02165427
1.285714 0 0 2.092156
1.428571 -3.172066E-18 0.1428571 0.4310947
1.571428 -6.344132E-18 0.2857143 0.04741246
1.714286 -9.516197E-18 0.4285714 0
1.857143 -1.268826E-17 0.5714285 0.0246574
2 -1.586033E-17 0.7142857 0.1931504
1.142857 0 0 1.983865
1.285714 -3.172066E-18 0.1428571 0.4165415
1.428571 -6.344132E-18 0.2857143 0.04691108
1.571428 -9.516197E-18 0.4285714 0
1.714286 -1.268826E-17 0.5714285 0.02953113
1.857143 -1.586033E-17 0.7142857 0.2205325
2 -1.903239E-17 0.8571428 0.9498391
0.9999999 0 0 1.850871
1.142857 -3.172066E-18 0.1428571 0.3968511
1.285714 -6.344132E-18 0.2857143 0.04567187
1.428571 -9.516197E-18 0.4285714 0
1.571428 -1.268826E-17 0.5714285 0.03251123
1.714286 -1.586033E-17 0.7142857 0.2484481
1.857143 -1.903239E-17 0.8571428 1.079548
2 -2.220446E-17 0.9999999 3.070488
2 0 0 2.13565
2 -3.172065E-18 0.1428571 0.4143347
2.142857 -3.172065E-18 0.1428571 0.3936511
2 -6.344131E-18 0.2857142 0.04276204
2.142857 -6.344131E-18 0.2857142 0.03968997
2.285714 -6.344131E-18 0.2857142 0.03621384
2 -9.516196E-18 0.4285714 0
2.142857 -9.516197E-18 0.4285714 0
2.285714 -9.516197E-18 0.4285713 0
2.428571 -9.516196E-18 0.4285714 0
2 -1.268826E-17 0.5714285 0.02165427
2.142857 -1.268826E-17 0.5714285 0.01707874
2.285714 -1.268826E-17 0.5714285 0.01281579
2.428571 -1.268826E-17 0.5714285 0.009023765
2.571429 -1.268826E-17 0.5714285 0.004934719
2 -1.586033E-17 0.7142857 0.1931504
2.142857 -1.586033E-17 0.7142856 0.165539
2.285714 -1.586033E-17 0.7142856 0.1392277
2.428571 -1.586033E-17 0.7142856 0.1148675
2.571429 -1.586033E-17 0.7142856 0.09296817
2.714286 -1.586033E-17 0.7142857 0.07364699
2 -1.903239E-17 0.8571428 0.9498391
2.142857 -1.903239E-17 0.8571428 0.8225563
2.285714 -1.903239E-17 0.8571427 0.6995541
2.428571 -1.903239E-17 0.8571428 0.5846868
2.571429 -1.903239E-17 0.8571428 0.4801299
2.714285 -1.903239E-17 0.8571428 0.3873347
2.857143 -1.903239E-17 0.8571428 0.3060292
2 -2.220446E-17 0.9999999 3.070488
2.142857 -2.220446E-17 0.9999999 2.66496
2.285714 -2.220446E-17 0.9999999 2.274107
2.428571 -2.220446E-17 0.9999999 1.919588
2.571429 -2.220446E-17 0.9999999 1.602653
2.714286 -2.220446E-17 0.9999999 1.329204
2.857143 -2.220446E-17 0.9999999 1.107709
3 -2.220446E-17 0.9999999 0.924939
4 -4.440892E-17 2 35.87571
4 -4.758098E-17 2.142857 18.5724
4.142857 -4.758098E-17 2.142857 18.29273
4 -5.075305E-17 2.285714 6.718324
4.142857 -5.075305E-17 2.285714 6.550436
4.285714 -5.075305E-17 2.285714 6.275473
4 -5.392512E-17 2.428571 1.641706
4.142857 -5.392512E-17 2.428571 1.580736
4.285714 -5.392512E-17 2.428571 1.503521
4.428572 -5.392512E-17 2.428571 1.402729
4 -5.709718E-17 2.571428 0.2777726
4.142857 -5.709718E-17 2.571428 0.2464936
4.285714 -5.709718E-17 2.571429 0.2325976
4.428572 -5.709718E-17 2.571429 0.2154241
4.571429 -5.709719E-17 2.571429 0.1949603
4 -6.026925E-17 2.714286 0.01399576
4.142857 -6.026925E-17 2.714286 0
4.285714 -6.026925E-17 2.714286 0
4.428571 -6.026925E-17 2.714286 0
4.571428 -6.026925E-17 2.714286 0
4.714286 -6.026925E-17 2.714286 0
4 -6.344132E-17 2.857143 0
4.142858 -6.344132E-17 2.857143 0
4.285714 -6.344131E-17 2.857143 0
4.428571 -6.344131E-17 2.857143 0
4.571428 -6.344132E-17 2.857143 0
4.714286 -6.344132E-17 2.857142 0
4.857143 -6.344132E-17 2.857143 0
4 -6.661338E-17 3 0
4.142857 -6.661338E-17 3 0
4.285714 -6.661338E-17 3 0
4.428571 -6.661338E-17 3 0
4.571428 -6.661338E-17 3 0
4.714286 -6.661338E-17 3 0
4.857142 -6.661338E-17 3 0
5 -6.661338E-17 3 0
5 -6.661338E-17 3 0
4.857142 -6.661338E-17 3 0
5 -6.978545E-17 3.142857 0
4.714286 -6.661338E-17 3 0
4.857143 -6.978545E-17 3.142857 0
5 -7.295752E-17 3.285714 0
4.571428 -6.661338E-17 3 0
4.714286 -6.978545E-17 3.142857 0
4.857142 -7.295752E-17 3.285714 0
5 -7.612959E-17 3.428572 0
4.428571 -6.661338E-17 3 0
4.571428 -6.978545E-17 3.142857 0
4.714286 -7.295752E-17 3.285714 0
4.857142 -7.612958E-17 3.428571 0
5 -7.930165E-17 3.571429 0
4.285714 -6.661338E-17 3 0
4.428571 -6.978545E-17 3.142857 0
4.571428 -7.295752E-17 3.285714 0
4.714286 -7.612958E-17 3.428572 0
4.857142 -7.930165E-17 3.571429 0
5 -8.247372E-17 3.714286 0
4.142857 -6.661338E-17 3 0
4.285714 -6.978546E-17 3.142857 0
4.428571 -7.295752E-17 3.285714 0
4.571428 -7.612958E-17 3.428571 0
4.714286 -7.930165E-17 3.571429 0
4.857143 -8.247371E-17 3.714286 0
5 -8.564578E-17 3.857143 0
4 -6.661338E-17 3 0
4.142857 -6.978545E-17 3.142857 0
4.285714 -7.295752E-17 3.285714 0
4.428571 -7.612957E-17 3.428571 0
4.571428 -7.930165E-17 3.571429 0
4.714286 -8.247371E-17 3.714286 0
4.857142 -8.564578E-17 3.857143 0
5 -8.881784E-17 4 0
3 -2.220446E-17 0.9999999 0.9249364
3 -2.537652E-17 1.142857 2.653873
3.142857 -2.537652E-17 1.142857 2.461514
3 -2.854859E-17 1.285714 6.15371
3.142857 -2.854859E-17 1.285714 6.290643
3.285714 -2.854859E-17 1.285714 6.642373
3 -3.172066E-17 1.428571 12.06835
3.142857 -3.172066E-17 1.428571 13.25271
3.285714 -3.172066E-17 1.428571 14.77339
3.428572 -3.172066E-17 1.428571 16.57428
3 -3.489272E-17 1.571428 19.97532
3.142857 -3.489272E-17 1.571428 22.67361
3.285714 -3.489272E-17 1.571428 25.74782
3.428571 -3.489272E-17 1.571428 29.09599
3.571429 -3.489272E-17 1.571429 32.59513
3 -3.806479E-17 1.714286 27.07235
3.142857 -3.806479E-17 1.714285 30.85745
3.285714 -3.806479E-17 1.714286 34.89067
3.428572 -3.806479E-17 1.714286 39.03149
3.571429 -3.806479E-17 1.714285 43.1244
3.714286 -3.806479E-17 1.714286 47.00562
3 -4.123685E-17 1.857143 28.8362
3.142857 -4.123685E-17 1.857143 32.5721
3.285714 -4.123685E-17 1.857143 36.33688
3.428571 -4.123685E-17 1.857143 39.98772
3.571429 -4.123686E-17 1.857143 43.37096
3.714286 -4.123685E-17 1.857143 46.34347
3.857143 -4.123685E-17 1.857143 48.77216
3 -4.440892E-17 2 22.93733
3.142857 -4.440892E-17 2 25.57643
3.285714 -4.440892E-17 2 28.15414
3.428571 -4.440892E-17 2 30.51371
3.571429 -4.440892E-17 2 32.54944
3.714286 -4.440892E-17 2 34.16818
3.857143 -4.440892E-17 2 35.28546
4 -4.440892E-17 2 35.87566
3 -2.220446E-17 0.9999999 0.9249364
2.857143 -2.220446E-17 0.9999999 1.107705
3 -2.537652E-17 1.142857 2.653873
2.714286 -2.220446E-17 0.9999999 1.3292
2.857143 -2.537652E-17 1.142857 2.957761
3 -2.854859E-17 1.285714 6.15371
2.571429 -2.220446E-17 0.9999999 1.602649
2.714286 -2.537653E-17 1.142857 3.378791
2.857143 -2.854859E-17 1.285714 6.249821
3 -3.172066E-17 1.428571 12.06835
2.428571 -2.220446E-17 0.9999999 1.919582
2.571429 -2.537652E-17 1.142857 3.913819
2.714286 -2.854859E-17 1.285714 6.583976
2.857143 -3.172066E-17 1.428571 11.25986
3 -3.489272E-17 1.571429 19.97532
2.285714 -2.220446E-17 0.9999999 2.274107
2.428571 -2.537652E-17 1.142857 4.549721
2.571429 -2.854859E-17 1.285714 7.151945
2.714286 -3.172066E-17 1.428571 10.84574
2.857143 -3.489272E-17 1.571428 17.72854
3 -3.806479E-17 1.714286 27.07235
2.142857 -2.220446E-17 0.9999999 2.664953
2.285714 -2.537652E-17 1.142857 5.276244
2.428571 -2.854859E-17 1.285714 7.941154
2.571429 -3.172066E-17 1.428571 10.82564
2.714286 -3.489272E-17 1.571428 15.98176
2.857143 -3.806479E-17 1.714286 23.64951
3 -4.123685E-17 1.857143 28.8362
2 -2.220446E-17 0.9999999 3.070488
2.142857 -2.537652E-17 1.142857 6.073994
2.285714 -2.854859E-17 1.285714 8.922754
2.428571 -3.172066E-17 1.428571 11.18389
2.571429 -3.489272E-17 1.571428 14.75393
2.714286 -3.806479E-17 1.714286 20.70099
2.857143 -4.123685E-17 1.857143 25.26592
3 -4.440892E-17 2 22.93733
4 -4.440892E-17 2 35.87571
3.857143 -4.440892E-17 2 35.2855
4 -4.758098E-17 2.142857 18.5724
3.714286 -4.440892E-17 2 34.16822
3.857143 -4.758098E-17 2.142857 18.53764
4 -5.075305E-17 2.285714 6.718324
3.571429 -4.440892E-17 2 32.54947
3.714286 -4.758099E-17 2.142857 18.18828
3.857143 -5.075306E-17 2.285714 6.768992
4 -5.392512E-17 2.428571 1.641706
3.428571 -4.440892E-17 2 30.51371
3.571429 -4.758098E-17 2.142857 17.54028
3.714286 -5.075305E-17 2.285714 6.725496
3.857143 -5.392512E-17 2.428571 1.688105
4 -5.709719E-17 2.571429 0.2777726
3.285714 -4.440892E-17 2 28.15414
3.428571 -4.758098E-17 2.142857 16.6447
3.571429 -5.075305E-17 2.285714 6.567661
3.714286 -5.392512E-17 2.428571 1.731629
3.857143 -5.709719E-17 2.571429 0.3323808
4 -6.026925E-17 2.714286 0.01399576
3.142857 -4.440892E-17 2 25.57645
3.285714 -4.758098E-17 2.142857 15.56295
3.428571 -5.075305E-17 2.285714 6.333933
3.571429 -5.392512E-17 2.428571 1.760682
3.714286 -5.709719E-17 2.571429 0.3961309
3.857143 -6.026925E-17 2.714285 0.06808238
4 -6.344132E-17 2.857143 0
3 -4.440892E-17 2 22.93733
3.142857 -4.758098E-17 2.142857 14.32219
3.285714 -5.075305E-17 2.285714 6.028996
3.428571 -5.392512E-17 2.428571 1.774427
3.571429 -5.709719E-17 2.571429 0.4687353
3.714286 -6.026925E-17 2.714286 0.1205542
3.857143 -6.344132E-17 2.857143 0.006473901
4 -6.661338E-17 3 0
0.9999999 0 0 1.850871
0.9999999 -3.172065E-18 0.1428571 0.3711388
1.142857 -3.172065E-18 0.1428571 0.3968511
0.9999999 -6.344131E-18 0.2857142 0.04038121
1.142857 -6.344131E-18 0.2857142 0.04286712
1.285714 -6.344131E-18 0.2857142 0.04567187
0.9999999 -9.516196E-18 0.4285714 0
1.142857 -9.516197E-18 0.4285714 0
1.285714 -9.516197E-18 0.4285713 0
1.428571 -9.516196E-18 0.4285714 0
0.9999999 -1.268826E-17 0.5714285 0.04290723
1.142857 -1.268826E-17 0.5714285 0.04152144
1.285714 -1.268826E-17 0.5714285 0.03864667
1.428571 -1.268826E-17 0.5714285 0.03623844
1.571429 -1.268826E-17 0.5714285 0.03251123
0.9999999 -1.586033E-17 0.7142857 0.3443083
1.142857 -1.586033E-17 0.7142856 0.3338668
1.285714 -1.586033E-17 0.7142856 0.3177751
1.428571 -1.586033E-17 0.7142856 0.2984978
1.571428 -1.586033E-17 0.7142856 0.2741809
1.714286 -1.586033E-17 0.7142857 0.2484481
0.9999999 -1.903239E-17 0.8571428 1.64376
1.142857 -1.903239E-17 0.8571428 1.594951
1.285714 -1.903239E-17 0.8571427 1.523624
1.428571 -1.903239E-17 0.8571428 1.432511
1.571428 -1.903239E-17 0.8571428 1.325376
1.714286 -1.903239E-17 0.8571428 1.205633
1.857143 -1.903239E-17 0.8571428 1.079548
0.9999999 -2.220446E-17 0.9999999 5.235191
1.142857 -2.220446E-17 0.9999999 5.086592
1.285714 -2.220446E-17 0.9999999 4.867561
1.428571 -2.220446E-17 0.9999999 4.584775
1.571428 -2.220446E-17 0.9999999 4.250183
1.714286 -2.220446E-17 0.9999999 3.876873
1.857143 -2.220446E-17 0.9999999 3.478916
2 -2.220446E-17 0.9999999 3.070496
0.9999999 0 0 1.850871
0.8571428 0 0 1.698086
0.9999999 -3.172066E-18 0.1428571 0.3711388
0.7142857 0 0 1.533597
0.8571428 -3.172066E-18 0.1428571 0.3414635
0.9999999 -6.344132E-18 0.2857143 0.04038121
0.5714285 0 0 1.361856
0.7142857 -3.172066E-18 0.1428571 0.3081864
0.8571428 -6.344132E-18 0.2857143 0.03653999
0.9999999 -9.516197E-18 0.4285714 0
0.4285714 0 0 1.189712
0.5714285 -3.172066E-18 0.1428571 0.2735754
0.7142857 -6.344132E-18 0.2857143 0.03236736
0.8571428 -9.516197E-18 0.4285714 0
0.9999999 -1.268826E-17 0.5714285 0.04290723
0.2857143 0 0 1.021554
0.4285714 -3.172066E-18 0.1428571 0.2388443
0.5714285 -6.344132E-18 0.2857143 0.02801914
0.7142857 -9.516197E-18 0.4285714 0
0.8571428 -1.268826E-17 0.5714285 0.04450387
0.9999999 -1.586033E-17 0.7142857 0.3443083
0.1428571 0 0 0.8626881
0.2857143 -3.172066E-18 0.1428571 0.2042029
0.4285714 -6.344132E-18 0.2857143 0.02454354
0.5714285 -9.516197E-18 0.4285714 0
0.7142857 -1.268826E-17 0.5714285 0.04372622
0.8571428 -1.586033E-17 0.7142857 0.3504268
0.9999999 -1.903239E-17 0.8571428 1.64376
0 0 0 0.7148062
0.1428571 -3.172066E-18 0.1428571 0.1714016
0.2857143 -6.344132E-18 0.2857143 0.02024978
0.4285714 -9.516197E-18 0.4285714 0
0.5714285 -1.268826E-17 0.5714285 0.04313912
0.7142857 -1.586033E-17 0.7142857 0.3503042
0.8571428 -1.903239E-17 0.8571428 1.668063
0.9999999 -2.220446E-17 0.9999999 5.235191
0 0 0 0.7148062
0 -3.172065E-18 0.1428571 0.1419828
0.1428571 -3.172065E-18 0.1428571 0.1714016
0 -6.344131E-18 0.2857142 0.01233053
0.1428571 -6.344131E-18 0.2857142 0.01614755
0.2857143 -6.344131E-18 0.2857142 0.02024978
0 -9.516196E-18 0.4285714 0
0.1428571 -9.516197E-18 0.4285714 0
0.2857143 -9.516197E-18 0.4285713 0
0.4285714 -9.516196E-18 0.4285714 0
0 -1.268826E-17 0.5714285 0.03354664
0.1428571 -1.268826E-17 0.5714285 0.03700242
0.2857143 -1.268826E-17 0.5714285 0.03920363
0.4285714 -1.268826E-17 0.5714285 0.04100803
0.5714285 -1.268826E-17 0.5714285 0.04313912
0 -1.586033E-17 0.7142857 0.2753538
0.1428571 -1.586033E-17 0.7142856 0.2987798
0.2857143 -1.586033E-17 0.7142856 0.3184231
0.4285714 -1.586033E-17 0.7142856 0.334284
0.5714285 -1.586033E-17 0.7142856 0.3447824
0.7142857 -1.586033E-17 0.7142857 0.3503042
0 -1.903239E-17 0.8571428 1.330445
0.1428571 -1.903239E-17 0.8571428 1.432278
0.2857143 -1.903239E-17 0.8571427 1.520339
0.4285714 -1.903239E-17 0.8571428 1.590837
0.5714285 -1.903239E-17 0.8571428 1.640639
0.7142857 -1.903239E-17 0.8571428 1.666271
0.8571428 -1.903239E-17 0.8571428 1.668063
0 -2.220446E-17 0.9999999 4.260956
0.1428571 -2.220446E-17 0.9999999 4.573325
0.2857143 -2.220446E-17 0.9999999 4.844743
0.4285714 -2.220446E-17 0.9999999 5.06216
0.5714285 -2.220446E-17 0.9999999 5.216373
0.7142857 -2.220446E-17 0.9999999 5.300398
0.8571428 -2.220446E-17 0.9999999 5.306402
0.9999999 -2.220446E-17 0.9999999 5.235207
4 -6.661338E-17 3 0
4 -6.978545E-17 3.142857 0
4.142857 -6.978545E-17 3.142857 0
4 -7.295752E-17 3.285714 0
4.142857 -7.295752E-17 3.285714 0
4.285714 -7.295752E-17 3.285714 0
4 -7.612958E-17 3.428571 0
4.142857 -7.612958E-17 3.428571 0
4.285714 -7.612959E-17 3.428571 0
4.428572 -7.612959E-17 3.428572 0
4 -7.930165E-17 3.571428 0
4.142857 -7.930165E-17 3.571429 0
4.285714 -7.930165E-17 3.571429 0
4.428572 -7.930165E-17 3.571429 0
4.571429 -7.930165E-17 3.571429 0
4 -8.247372E-17 3.714286 0
4.142857 -8.247371E-17 3.714286 0
4.285714 -8.247371E-17 3.714286 0
4.428571 -8.247371E-17 3.714286 0
4.571428 -8.247372E-17 3.714286 0
4.714286 -8.247372E-17 3.714286 0
4 -8.564578E-17 3.857143 0
4.142858 -8.564578E-17 3.857143 0
4.285714 -8.564578E-17 3.857143 0
4.428571 -8.564578E-17 3.857143 0
4.571428 -8.564578E-17 3.857143 0
4.714286 -8.564578E-17 3.857143 0
4.857143 -8.564578E-17 3.857143 0
4 -8.881784E-17 4 0
4.142857 -8.881784E-17 4 0
4.285714 -8.881785E-17 4 0
4.428571 -8.881784E-17 4 0
4.571428 -8.881784E-17 4 0
4.714286 -8.881784E-17 4 0
4.857142 -8.881784E-17 4 0
5 -8.881784E-17 4 0
5 -8.881784E-17 4 0
4.857142 -8.881784E-17 4 0
5 -9.198991E-17 4.142857 0
4.714286 -8.881784E-17 4 0
4.857143 -9.198991E-17 4.142857 0
5 -9.516198E-17 4.285714 0
4.571428 -8.881784E-17 4 0
4.714286 -9.198991E-17 4.142857 0
4.857142 -9.516198E-17 4.285714 0
5 -9.833404E-17 4.428572 0
4.428571 -8.881784E-17 4 0
4.571428 -9.198991E-17 4.142857 0
4.714286 -9.516197E-17 4.285714 0
4.857142 -9.833404E-17 4.428572 0
5 -1.015061E-16 4.571429 0
4.285714 -8.881785E-17 4 0
4.428571 -9.198991E-17 4.142857 0
4.571428 -9.516197E-17 4.285714 0
4.714286 -9.833404E-17 4.428571 0
4.857142 -1.015061E-16 4.571428 0
5 -1.046782E-16 4.714286 0
4.142857 -8.881784E-17 4 0
4.285714 -9.198991E-17 4.142858 0
4.428571 -9.516197E-17 4.285714 0
4.571428 -9.833404E-17 4.428571 0
4.714286 -1.015061E-16 4.571428 0
4.857143 -1.046782E-16 4.714286 0
5 -1.078502E-16 4.857143 0
4 -8.881784E-17 4 0
4.142857 -9.198991E-17 4.142857 0
4.285714 -9.516198E-17 4.285714 0
4.428571 -9.833404E-17 4.428571 0
4.571428 -1.015061E-16 4.571428 0
4.714286 -1.046782E-16 4.714286 0
4.857142 -1.078502E-16 4.857142 0
5 -1.110223E-16 5 0
4 -8.881784E-17 4 0
4 -9.198991E-17 4.142857 0
4.142857 -9.198991E-17 4.142857 0
4 -9.516197E-17 4.285714 0
4.142857 -9.516197E-17 4.285714 0
4.285714 -9.516198E-17 4.285714 0
4 -9.833404E-17 4.428572 0
4.142857 -9.833404E-17 4.428571 0
4.285714 -9.833404E-17 4.428571 0
4.428572 -9.833404E-17 4.428572 0
4 -1.015061E-16 4.571428 0
4.142857 -1.015061E-16 4.571428 0
4.285714 -1.015061E-16 4.571428 0
4.428572 -1.015061E-16 4.571429 0
4.571429 -1.015061E-16 4.571429 0
4 -1.046782E-16 4.714286 0
4.142857 -1.046782E-16 4.714286 0
4.285714 -1.046782E-16 4.714286 0
4.428571 -1.046782E-16 4.714285 0
4.571428 -1.046782E-16 4.714285 0
4.714286 -1.046782E-16 4.714286 0
4 -1.078502E-16 4.857143 0
4.142858 -1.078502E-16 4.857143 0
4.285714 -1.078502E-16 4.857142 0
4.428571 -1.078502E-16 4.857142 0
4.571428 -1.078502E-16 4.857143 0
4.714286 -1.078502E-16 4.857143 0
4.857143 -1.078502E-16 4.857143 0
4 -1.110223E-16 5 0
4.142857 -1.110223E-16 5 0
4.285714 -1.110223E-16 5 0
4.428571 -1.110223E-16 5 0
4.571428 -1.110223E-16 5 0
4.714286 -1.110223E-16 5 0
4.857142 -1.110223E-16 5 0
5 -1.110223E-16 5 0
3 -4.440892E-17 2 22.93733
3 -4.758098E-17 2.142857 13.00644
