ply
format ascii 1.0
element vertex 1343
property float x
property float y
property float z
property float value
end_header
1.636364 -9.083644E-17 4.090909 0
1.727273 -9.285501E-17 4.181818 0
1.818182 -9.487361E-17 4.272727 0
1.909091 -9.68922E-17 4.363636 0
2 -9.891078E-17 4.454545 0
1.454545 -8.881784E-17 4 0
1.545454 -9.083643E-17 4.090909 0
1.636364 -9.285502E-17 4.181818 0
1.727273 -9.48736E-17 4.272727 0
1.818182 -9.689219E-17 4.363636 0
1.909091 -9.891078E-17 4.454545 0
2 -1.009294E-16 4.545455 0
1.363636 -8.881784E-17 4 0
1.454545 -9.083643E-17 4.090909 0
1.545454 -9.285502E-17 4.181818 0
1.636364 -9.487361E-17 4.272727 0
1.727273 -9.689219E-17 4.363636 0
1.818182 -9.891078E-17 4.454545 0
1.909091 -1.009294E-16 4.545454 0
2 -1.02948E-16 4.636364 0
1.272727 -8.881785E-17 4 0
1.363636 -9.083643E-17 4.090909 0
1.454545 -9.285502E-17 4.181818 0
1.545454 -9.487361E-17 4.272727 0
1.636364 -9.689219E-17 4.363636 0
1.727273 -9.891078E-17 4.454545 0
1.818182 -1.009294E-16 4.545455 0
1.909091 -1.02948E-16 4.636364 0
2 -1.049665E-16 4.727273 0
1.181818 -8.881785E-17 4 0
1.272727 -9.083644E-17 4.090909 0
1.363636 -9.285502E-17 4.181818 0
1.454545 -9.487361E-17 4.272727 0
1.545454 -9.689219E-17 4.363636 0
1.636364 -9.891078E-17 4.454545 0
1.727273 -1.009294E-16 4.545455 0
1.818182 -1.029479E-16 4.636364 0
1.909091 -1.049665E-16 4.727273 0
2 -1.069851E-16 4.818182 0
1.090909 -8.881784E-17 4 0
1.181818 -9.083644E-17 4.090909 0
1.272727 -9.285502E-17 4.181818 0
1.363636 -9.487361E-17 4.272727 0
1.454545 -9.689219E-17 4.363636 0
1.545454 -9.891078E-17 4.454545 0
1.636364 -1.009294E-16 4.545455 0
1.727273 -1.02948E-16 4.636364 0
1.818182 -1.049665E-16 4.727273 0
1.909091 -1.069851E-16 4.818182 0
2 -1.090037E-16 4.909091 0
0.9999999 -8.881784E-17 4 0
1.090909 -9.083642E-17 4.090909 0
1.181818 -9.285502E-17 4.181818 0
1.272727 -9.487361E-17 4.272727 0
1.363636 -9.689219E-17 4.363636 0
1.454545 -9.891078E-17 4.454545 0
1.545454 -1.009294E-16 4.545455 0
1.636364 -1.02948E-16 4.636364 0
1.727273 -1.049665E-16 4.727273 0
1.818182 -1.069851E-16 4.818182 0
1.909091 -1.090037E-16 4.909091 0
2 -1.110223E-16 5 0
2 -8.881784E-17 4 0
2 -9.083643E-17 4.090909 0
2.090909 -9.083644E-17 4.090909 0
2 -9.285502E-17 4.181818 0
2.090909 -9.285502E-17 4.181818 0
2.181818 -9.285502E-17 4.181818 0
2 -9.487361E-17 4.272727 0
2.090909 -9.487361E-17 4.272727 0
2.181818 -9.487361E-17 4.272727 0
2.272727 -9.487361E-17 4.272727 0
2 -9.689219E-17 4.363636 0
2.090909 -9.689219E-17 4.363636 0
2.181818 -9.689219E-17 4.363636 0
2.272727 -9.689219E-17 4.363636 0
2.363636 -9.689219E-17 4.363636 0
2 -9.891078E-17 4.454545 0
2.090909 -9.891078E-17 4.454545 0
2.181818 -9.891078E-17 4.454545 0
2.272727 -9.891078E-17 4.454545 0
2.363636 -9.891078E-17 4.454545 0
2.454545 -9.891078E-17 4.454545 0
2 -1.009294E-16 4.545455 0
2.090909 -1.009294E-16 4.545455 0
2.181818 -1.009294E-16 4.545455 0
2.272727 -1.009294E-16 4.545455 0
2.363636 -1.009294E-16 4.545455 0
2.454545 -1.009294E-16 4.545455 0
2.545455 -1.009294E-16 4.545455 0
2 -1.02948E-16 4.636364 0
2.090909 -1.029479E-16 4.636364 0
2.181818 -1.02948E-16 4.636364 0
2.272727 -1.02948E-16 4.636364 0
2.363636 -1.02948E-16 4.636364 0
2.454545 -1.029479E-16 4.636364 0
2.545455 -1.02948E-16 4.636364 0
2.636364 -1.02948E-16 4.636364 0
2 -1.049665E-16 4.727273 0
2.090909 -1.049665E-16 4.727273 0
2.181818 -1.049665E-16 4.727273 0
2.272727 -1.049665E-16 4.727273 0
2.363636 -1.049665E-16 4.727273 0
2.454545 -1.049665E-16 4.727273 0
2.545455 -1.049665E-16 4.727273 0
2.636364 -1.049665E-16 4.727273 0
2.727273 -1.049665E-16 4.727273 0
2 -1.069851E-16 4.818182 0
2.090909 -1.069851E-16 4.818182 0
2.181818 -1.069851E-16 4.818182 0
2.272727 -1.069851E-16 4.818182 0
2.363636 -1.069851E-16 4.818182 0
2.454545 -1.069851E-16 4.818182 0
2.545455 -1.069851E-16 4.818182 0
2.636364 -1.069851E-16 4.818182 0
2.727273 -1.069851E-16 4.818182 0
2.818182 -1.069851E-16 4.818182 0
2 -1.090037E-16 4.909091 0
2.090909 -1.090037E-16 4.909091 0
2.181818 -1.090037E-16 4.909091 0
2.272727 -1.090037E-16 4.909091 0
2.363636 -1.090037E-16 4.909091 0
2.454545 -1.090037E-16 4.909091 0
2.545455 -1.090037E-16 4.909091 0
2.636364 -1.090037E-16 4.909091 0
2.727273 -1.090037E-16 4.909091 0
2.818182 -1.090037E-16 4.909091 0
2.909091 -1.090037E-16 4.909091 0
2 -1.110223E-16 5 0
2.090909 -1.110223E-16 5 0
2.181818 -1.110223E-16 5 0
2.272727 -1.110223E-16 5 0
2.363636 -1.110223E-16 5 0
2.454545 -1.110223E-16 5 0
2.545455 -1.110223E-16 5 0
2.636364 -1.110223E-16 5 0
2.727273 -1.110223E-16 5 0
2.818182 -1.110223E-16 5 0
2.909091 -1.110223E-16 5 0
3 -1.110223E-16 5 0
0.9999999 -6.661338E-17 3 0
0.9090909 -6.661338E-17 3 0
0.9999999 -6.863197E-17 3.090909 0
0.8181818 -6.661338E-17 3 0
0.9090908 -6.863197E-17 3.090909 0
0.9999999 -7.065055E-17 3.181818 0
0.7272727 -6.661338E-17 3 0
0.8181818 -6.863198E-17 3.090909 0
0.9090909 -7.065056E-17 3.181818 0
0.9999999 -7.266915E-17 3.272727 0
0.6363636 -6.661338E-17 3 0
0.7272726 -6.863198E-17 3.090909 0
0.8181818 -7.065056E-17 3.181818 0
0.9090908 -7.266915E-17 3.272727 0
0.9999999 -7.468774E-17 3.363636 0
0.5454545 -6.661338E-17 3 0
0.6363636 -6.863197E-17 3.090909 0
0.7272727 -7.065055E-17 3.181818 0
0.8181818 -7.266915E-17 3.272727 0
0.9090909 -7.468773E-17 3.363636 0
0.9999999 -7.670632E-17 3.454545 0
0.4545454 -6.661338E-17 3 0
0.5454545 -6.863197E-17 3.090909 0
0.6363636 -7.065055E-17 3.181818 0
0.7272727 -7.266914E-17 3.272727 0
0.8181818 -7.468774E-17 3.363636 0
0.9090909 -7.670632E-17 3.454545 0
0.9999999 -7.872491E-17 3.545455 0
0.3636363 -6.661338E-17 3 0
0.4545454 -6.863197E-17 3.090909 0
0.5454545 -7.065055E-17 3.181818 0
0.6363636 -7.266915E-17 3.272727 0
0.7272727 -7.468774E-17 3.363636 0
0.8181818 -7.670632E-17 3.454545 0
0.9090909 -7.872491E-17 3.545455 0
0.9999999 -8.07435E-17 3.636364 0
0.2727273 -6.661338E-17 3 0
0.3636363 -6.863197E-17 3.090909 0
0.4545454 -7.065055E-17 3.181818 0
0.5454545 -7.266915E-17 3.272727 0
0.6363636 -7.468774E-17 3.363636 0
0.7272727 -7.670632E-17 3.454545 0
0.8181818 -7.872491E-17 3.545455 0
0.9090908 -8.07435E-17 3.636364 0
0.9999999 -8.276209E-17 3.727273 0
0.1818182 -6.661338E-17 3 0
0.2727273 -6.863197E-17 3.090909 0
0.3636363 -7.065056E-17 3.181818 0
0.4545454 -7.266914E-17 3.272727 0
0.5454545 -7.468774E-17 3.363636 0
0.6363636 -7.670632E-17 3.454545 0
0.7272727 -7.872491E-17 3.545455 0
0.8181818 -8.07435E-17 3.636364 0
0.9090909 -8.276209E-17 3.727273 0
0.9999999 -8.478067E-17 3.818182 0
0.09090909 -6.661338E-17 3 0
0.1818182 -6.863197E-17 3.090909 0
0.2727273 -7.065056E-17 3.181818 0
0.3636363 -7.266915E-17 3.272727 0
0.4545454 -7.468773E-17 3.363636 0
0.5454545 -7.670632E-17 3.454545 0
0.6363636 -7.872491E-17 3.545455 0
0.7272726 -8.07435E-17 3.636364 0
0.8181818 -8.276209E-17 3.727273 0
0.9090908 -8.478067E-17 3.818182 0
0.9999999 -8.679926E-17 3.909091 0
0 -6.661338E-17 3 0
0.09090909 -6.863197E-17 3.090909 0
0.1818182 -7.065055E-17 3.181818 0
0.2727273 -7.266915E-17 3.272727 0
0.3636363 -7.468774E-17 3.363636 0
0.4545454 -7.670632E-17 3.454545 0
0.5454545 -7.872491E-17 3.545455 0
0.6363636 -8.07435E-17 3.636364 0
0.7272727 -8.276208E-17 3.727273 0
0.8181818 -8.478067E-17 3.818182 0
0.9090909 -8.679926E-17 3.909091 0
0.9999999 -8.881784E-17 4 0
0.9999999 -6.661338E-17 3 0
0.9999999 -6.863197E-17 3.090909 0
1.090909 -6.863197E-17 3.090909 0
0.9999999 -7.065055E-17 3.181818 0
1.090909 -7.065055E-17 3.181818 0
1.181818 -7.065055E-17 3.181818 0
0.9999999 -7.266915E-17 3.272727 0
1.090909 -7.266915E-17 3.272727 0
1.181818 -7.266915E-17 3.272727 0
1.272727 -7.266915E-17 3.272727 0
0.9999999 -7.468774E-17 3.363636 0
1.090909 -7.468774E-17 3.363636 0
1.181818 -7.468774E-17 3.363636 0
1.272727 -7.468773E-17 3.363636 0
1.363636 -7.468774E-17 3.363636 0
0.9999999 -7.670632E-17 3.454545 0
1.090909 -7.670632E-17 3.454545 0
1.181818 -7.670632E-17 3.454545 0
1.272727 -7.670632E-17 3.454545 0
1.363636 -7.670632E-17 3.454545 0
1.454545 -7.670632E-17 3.454545 0
0.9999999 -7.87249E-17 3.545455 0
1.090909 -7.872491E-17 3.545455 0
1.181818 -7.872491E-17 3.545455 0
1.272727 -7.87249E-17 3.545455 0
1.363636 -7.872491E-17 3.545455 0
1.454545 -7.87249E-17 3.545455 0
1.545455 -7.872491E-17 3.545455 0
0.9999999 -8.07435E-17 3.636364 0
1.090909 -8.07435E-17 3.636364 0
1.181818 -8.07435E-17 3.636364 0
1.272727 -8.07435E-17 3.636364 0
1.363636 -8.07435E-17 3.636364 0
1.454545 -8.07435E-17 3.636364 0
1.545454 -8.07435E-17 3.636364 0
1.636364 -8.07435E-17 3.636364 0
0.9999999 -8.276209E-17 3.727273 0
1.090909 -8.276208E-17 3.727273 0
1.181818 -8.276208E-17 3.727273 0
1.272727 -8.276208E-17 3.727273 0
1.363636 -8.276208E-17 3.727273 0
1.454545 -8.276208E-17 3.727273 0
1.545454 -8.276208E-17 3.727273 0
1.636364 -8.276208E-17 3.727273 0
1.727273 -8.276209E-17 3.727273 0
0.9999999 -8.478067E-17 3.818182 0
1.090909 -8.478067E-17 3.818182 0
1.181818 -8.478067E-17 3.818182 0
1.272727 -8.478067E-17 3.818182 0
1.363636 -8.478067E-17 3.818182 0
1.454545 -8.478067E-17 3.818182 0
1.545454 -8.478067E-17 3.818182 0
1.636363 -8.478067E-17 3.818182 0
1.727273 -8.478067E-17 3.818182 0
1.818182 -8.478067E-17 3.818182 0
0.9999999 -8.679925E-17 3.909091 0
1.090909 -8.679926E-17 3.909091 0
1.181818 -8.679926E-17 3.909091 0
1.272727 -8.679925E-17 3.909091 0
1.363636 -8.679925E-17 3.909091 0
1.454545 -8.679925E-17 3.909091 0
1.545455 -8.679926E-17 3.909091 0
1.636364 -8.679926E-17 3.909091 0
1.727273 -8.679926E-17 3.909091 0
1.818182 -8.679926E-17 3.909091 0
1.909091 -8.679926E-17 3.909091 0
0.9999999 -8.881784E-17 4 0
1.090909 -8.881784E-17 4 0
1.181818 -8.881785E-17 4 0
1.272727 -8.881785E-17 4 0
1.363636 -8.881784E-17 4 0
1.454545 -8.881784E-17 4 0
1.545454 -8.881784E-17 4 0
1.636364 -8.881784E-17 4 0
1.727273 -8.881784E-17 4 0
1.818182 -8.881785E-17 4 0
1.909091 -8.881784E-17 4 0
2 -8.881784E-17 4 0
0 -4.440892E-17 2 0
-0.09090909 -4.440892E-17 2 0
2.980233E-08 -4.642751E-17 2.090909 0
-0.1818182 -4.440892E-17 2 0
-0.09090912 -4.642751E-17 2.090909 0
0 -4.84461E-17 2.181818 0
-0.2727273 -4.440892E-17 2 0
-0.1818182 -4.642751E-17 2.090909 0
-0.09090909 -4.84461E-17 2.181818 0
2.980233E-08 -5.046468E-17 2.272727 0
-0.3636365 -4.440892E-17 2 0
-0.2727273 -4.64275E-17 2.090909 0
-0.1818182 -4.844609E-17 2.181818 0
-0.09090912 -5.046468E-17 2.272727 0
0 -5.248327E-17 2.363636 0
-0.4545456 -4.440892E-17 2 0
-0.3636364 -4.642751E-17 2.090909 0
-0.2727273 -4.84461E-17 2.181818 0
-0.1818182 -5.046468E-17 2.272727 0
-0.09090909 -5.248327E-17 2.363636 0
2.980233E-08 -5.450186E-17 2.454545 0
-0.5454546 -4.440892E-17 2 0
-0.4545456 -4.64275E-17 2.090909 0
-0.3636364 -4.844609E-17 2.181818 0
-0.2727273 -5.046468E-17 2.272727 0
-0.1818182 -5.248327E-17 2.363636 0
-0.09090909 -5.450186E-17 2.454545 0
2.980233E-08 -5.652044E-17 2.545455 0
-0.6363638 -4.440892E-17 2 0
-0.5454546 -4.64275E-17 2.090909 0
-0.4545456 -4.844609E-17 2.181818 0
-0.3636364 -5.046468E-17 2.272727 0
-0.2727273 -5.248327E-17 2.363636 0
-0.1818182 -5.450186E-17 2.454545 0
-0.09090909 -5.652044E-17 2.545455 0
0 -5.853904E-17 2.636364 0
-0.7272729 -4.440892E-17 2 0
-0.6363638 -4.64275E-17 2.090909 0
-0.5454546 -4.844609E-17 2.181818 0
-0.4545456 -5.046468E-17 2.272727 0
-0.3636364 -5.248327E-17 2.363636 0
-0.2727273 -5.450186E-17 2.454545 0
-0.1818182 -5.652044E-17 2.545455 0
-0.09090912 -5.853904E-17 2.636364 0
2.980233E-08 -6.055762E-17 2.727273 0
-0.818182 -4.440892E-17 2 0
-0.7272729 -4.642751E-17 2.090909 0
-0.6363638 -4.844609E-17 2.181818 0
-0.5454546 -5.046468E-17 2.272727 0
-0.4545456 -5.248327E-17 2.363636 0
-0.3636364 -5.450186E-17 2.454545 0
-0.2727273 -5.652044E-17 2.545455 0
-0.1818182 -5.853904E-17 2.636364 0
-0.09090909 -6.055762E-17 2.727273 0
0 -6.257621E-17 2.818182 0
-0.9090911 -4.440892E-17 2 0
-0.818182 -4.642751E-17 2.090909 0
-0.7272729 -4.84461E-17 2.181818 0
-0.6363638 -5.046468E-17 2.272727 0
-0.5454546 -5.248327E-17 2.363636 0
-0.4545456 -5.450186E-17 2.454545 0
-0.3636364 -5.652044E-17 2.545455 0
-0.2727273 -5.853904E-17 2.636364 0
-0.1818182 -6.055762E-17 2.727273 0
-0.09090912 -6.257621E-17 2.818182 0
2.980233E-08 -6.45948E-17 2.909091 0
-1 -4.440892E-17 2 0
-0.9090911 -4.64275E-17 2.090909 0
-0.818182 -4.84461E-17 2.181818 0
-0.7272729 -5.046468E-17 2.272727 0
-0.6363638 -5.248327E-17 2.363636 0
-0.5454546 -5.450186E-17 2.454545 0
-0.4545456 -5.652044E-17 2.545455 0
-0.3636365 -5.853904E-17 2.636364 0
-0.2727273 -6.055762E-17 2.727273 0
-0.1818182 -6.257621E-17 2.818182 0
-0.09090909 -6.459479E-17 2.909091 0
0 -6.661338E-17 3 0
0 -4.440892E-17 2 0
0 -4.64275E-17 2.090909 0
0.09090909 -4.64275E-17 2.090909 0
0 -4.84461E-17 2.181818 0
0.09090909 -4.84461E-17 2.181818 0
0.1818182 -4.84461E-17 2.181818 0
0 -5.046468E-17 2.272727 0
0.09090909 -5.046468E-17 2.272727 0
0.1818182 -5.046468E-17 2.272727 0
0.2727273 -5.046468E-17 2.272727 0
0 -5.248327E-17 2.363636 0
0.09090909 -5.248327E-17 2.363636 0
0.1818182 -5.248327E-17 2.363636 0
0.2727273 -5.248327E-17 2.363636 0
0.3636363 -5.248327E-17 2.363636 0
0 -5.450186E-17 2.454545 0
0.09090909 -5.450186E-17 2.454545 0
0.1818182 -5.450186E-17 2.454545 0
0.2727273 -5.450186E-17 2.454545 0
0.3636363 -5.450186E-17 2.454545 0
0.4545454 -5.450186E-17 2.454545 0
0 -5.652044E-17 2.545455 0
0.09090909 -5.652044E-17 2.545455 0
0.1818182 -5.652044E-17 2.545455 0
0.2727273 -5.652044E-17 2.545455 0
0.3636363 -5.652044E-17 2.545455 0
0.4545454 -5.652044E-17 2.545455 0
0.5454545 -5.652044E-17 2.545455 0
0 -5.853904E-17 2.636364 0
0.09090909 -5.853903E-17 2.636364 0
0.1818182 -5.853903E-17 2.636364 0
0.2727273 -5.853903E-17 2.636364 0
0.3636363 -5.853903E-17 2.636364 0
0.4545454 -5.853904E-17 2.636364 0
0.5454545 -5.853904E-17 2.636364 0
0.6363636 -5.853904E-17 2.636364 0
0 -6.055762E-17 2.727273 0
0.09090909 -6.055762E-17 2.727273 0
0.1818182 -6.055761E-17 2.727273 0
0.2727273 -6.055762E-17 2.727273 0
0.3636363 -6.055762E-17 2.727273 0
0.4545454 -6.055761E-17 2.727273 0
0.5454545 -6.055762E-17 2.727273 0
0.6363636 -6.055762E-17 2.727273 0
0.7272727 -6.055762E-17 2.727273 0
0 -6.257621E-17 2.818182 0
0.09090909 -6.257621E-17 2.818182 0
0.1818182 -6.257621E-17 2.818182 0
0.2727273 -6.257621E-17 2.818182 0
0.3636363 -6.257621E-17 2.818182 0
0.4545454 -6.257621E-17 2.818182 0
0.5454545 -6.257621E-17 2.818182 0
0.6363636 -6.257621E-17 2.818182 0
0.7272727 -6.257621E-17 2.818182 0
0.8181818 -6.257621E-17 2.818182 0
0 -6.45948E-17 2.909091 0
0.09090909 -6.45948E-17 2.909091 0
0.1818182 -6.45948E-17 2.909091 0
0.2727273 -6.45948E-17 2.909091 0
0.3636363 -6.45948E-17 2.909091 0
0.4545454 -6.45948E-17 2.909091 0
0.5454545 -6.45948E-17 2.909091 0
0.6363636 -6.45948E-17 2.909091 0
0.7272727 -6.45948E-17 2.909091 0
0.8181818 -6.45948E-17 2.909091 0
0.9090909 -6.45948E-17 2.909091 0
0 -6.661338E-17 3 0
0.09090909 -6.661338E-17 3 0
0.1818182 -6.661338E-17 3 0
0.2727273 -6.661338E-17 3 0
0.3636363 -6.661338E-17 3 0
0.4545454 -6.661338E-17 3 0
0.5454545 -6.661338E-17 3 0
0.6363636 -6.661338E-17 3 0
0.7272727 -6.661338E-17 3 0
0.8181818 -6.661338E-17 3 0
0.9090909 -6.661338E-17 3 0
0.9999999 -6.661338E-17 3 0
-1 -2.220446E-17 0.9999999 0
-1.090909 -2.220446E-17 0.9999999 0
-1 -2.422305E-17 1.090909 0
-1.181818 -2.220446E-17 0.9999999 0
-1.090909 -2.422305E-17 1.090909 0
-1 -2.624163E-17 1.181818 0
-1.272727 -2.220446E-17 0.9999999 0
-1.181818 -2.422305E-17 1.090909 0
-1.090909 -2.624163E-17 1.181818 0
-1 -2.826022E-17 1.272727 0
-1.363636 -2.220446E-17 0.9999999 0
-1.272727 -2.422304E-17 1.090909 0
-1.181818 -2.624163E-17 1.181818 0
-1.090909 -2.826022E-17 1.272727 0
-1 -3.027881E-17 1.363636 0
-1.454545 -2.220446E-17 0.9999999 0
-1.363636 -2.422305E-17 1.090909 0
-1.272727 -2.624163E-17 1.181818 0
-1.181818 -2.826022E-17 1.272727 0
-1.090909 -3.027881E-17 1.363636 0
-1 -3.22974E-17 1.454545 0
-1.545455 -2.220446E-17 0.9999999 0
-1.454545 -2.422305E-17 1.090909 0
-1.363636 -2.624163E-17 1.181818 0
-1.272727 -2.826022E-17 1.272727 0
-1.181818 -3.027881E-17 1.363636 0
-1.090909 -3.229739E-17 1.454545 0
-1 -3.431598E-17 1.545455 0
-1.636364 -2.220446E-17 0.9999999 0
-1.545455 -2.422305E-17 1.090909 0
-1.454545 -2.624163E-17 1.181818 0
-1.363636 -2.826022E-17 1.272727 0
-1.272727 -3.027881E-17 1.363636 0
-1.181818 -3.22974E-17 1.454545 0
-1.090909 -3.431598E-17 1.545454 0
-1 -3.633457E-17 1.636364 0
-1.727273 -2.220446E-17 0.9999999 0
-1.636364 -2.422305E-17 1.090909 0
-1.545455 -2.624163E-17 1.181818 0
-1.454545 -2.826022E-17 1.272727 0
-1.363636 -3.027881E-17 1.363636 0
-1.272727 -3.229739E-17 1.454545 0
-1.181818 -3.431598E-17 1.545454 0
-1.090909 -3.633457E-17 1.636364 0
-1 -3.835316E-17 1.727273 0
-1.818182 -2.220446E-17 0.9999999 0
-1.727273 -2.422305E-17 1.090909 0
-1.636364 -2.624163E-17 1.181818 0
-1.545455 -2.826022E-17 1.272727 0
-1.454545 -3.027881E-17 1.363636 0
-1.363636 -3.229739E-17 1.454545 0
-1.272727 -3.431598E-17 1.545454 0
-1.181818 -3.633457E-17 1.636363 0
-1.090909 -3.835316E-17 1.727273 0
-1 -4.037174E-17 1.818182 0
-1.909091 -2.220446E-17 0.9999999 0
-1.818182 -2.422305E-17 1.090909 0
-1.727273 -2.624163E-17 1.181818 0
-1.636364 -2.826022E-17 1.272727 0
-1.545455 -3.027881E-17 1.363636 0
-1.454545 -3.229739E-17 1.454545 0
-1.363636 -3.431598E-17 1.545455 0
-1.272727 -3.633457E-17 1.636364 0
-1.181818 -3.835316E-17 1.727273 0
-1.090909 -4.037175E-17 1.818182 0
-1 -4.239033E-17 1.909091 0
-2 -2.220446E-17 0.9999999 0
-1.909091 -2.422304E-17 1.090909 0
-1.818182 -2.624163E-17 1.181818 0
-1.727273 -2.826022E-17 1.272727 0
-1.636364 -3.027881E-17 1.363636 0
-1.545455 -3.229739E-17 1.454545 0
-1.454545 -3.431598E-17 1.545454 0
-1.363636 -3.633457E-17 1.636364 0
-1.272727 -3.835316E-17 1.727273 0
-1.181818 -4.037174E-17 1.818182 0
-1.090909 -4.239033E-17 1.909091 0
-1 -4.440892E-17 2 0
-1 -2.220446E-17 0.9999999 0
-1 -2.422304E-17 1.090909 0
-0.9090911 -2.422304E-17 1.090909 0
-1 -2.624163E-17 1.181818 0
-0.9090911 -2.624163E-17 1.181818 0
-0.818182 -2.624163E-17 1.181818 0
-1 -2.826022E-17 1.272727 0
-0.9090911 -2.826022E-17 1.272727 0
-0.818182 -2.826022E-17 1.272727 0
-0.7272729 -2.826022E-17 1.272727 0
-1 -3.027881E-17 1.363636 0
-0.9090911 -3.027881E-17 1.363636 0
-0.8181821 -3.027881E-17 1.363636 0
-0.7272729 -3.027881E-17 1.363636 0
-0.6363638 -3.027881E-17 1.363636 0
-1 -3.229739E-17 1.454545 0
-0.9090911 -3.229739E-17 1.454545 0
-0.818182 -3.22974E-17 1.454545 0
-0.7272729 -3.22974E-17 1.454545 0
-0.6363637 -3.22974E-17 1.454545 0
-0.5454546 -3.22974E-17 1.454545 0
-1 -3.431598E-17 1.545454 0
-0.9090911 -3.431598E-17 1.545455 0
-0.818182 -3.431598E-17 1.545454 0
-0.7272729 -3.431598E-17 1.545454 0
-0.6363638 -3.431598E-17 1.545454 0
-0.5454547 -3.431598E-17 1.545454 0
-0.4545456 -3.431598E-17 1.545455 0
-1 -3.633457E-17 1.636364 0
-0.9090911 -3.633457E-17 1.636363 0
-0.818182 -3.633457E-17 1.636364 0
-0.7272729 -3.633457E-17 1.636364 0
-0.6363637 -3.633457E-17 1.636364 0
-0.5454547 -3.633457E-17 1.636364 0
-0.4545456 -3.633457E-17 1.636364 0
-0.3636365 -3.633457E-17 1.636364 0
-1 -3.835316E-17 1.727273 0
-0.9090911 -3.835316E-17 1.727273 0
-0.818182 -3.835316E-17 1.727273 0
-0.7272729 -3.835316E-17 1.727273 0
-0.6363637 -3.835316E-17 1.727273 0
-0.5454546 -3.835316E-17 1.727273 0
-0.4545456 -3.835316E-17 1.727273 0
-0.3636365 -3.835316E-17 1.727273 0
-0.2727273 -3.835316E-17 1.727273 0
-1 -4.037174E-17 1.818182 0
-0.9090912 -4.037174E-17 1.818182 0
-0.8181821 -4.037174E-17 1.818182 0
-0.7272729 -4.037174E-17 1.818182 0
-0.6363638 -4.037174E-17 1.818182 0
-0.5454547 -4.037174E-17 1.818182 0
-0.4545456 -4.037174E-17 1.818182 0
-0.3636365 -4.037174E-17 1.818182 0
-0.2727273 -4.037174E-17 1.818182 0
-0.1818182 -4.037174E-17 1.818182 0
-1 -4.239033E-17 1.909091 0
-0.9090911 -4.239033E-17 1.909091 0
-0.8181821 -4.239033E-17 1.909091 0
-0.7272729 -4.239033E-17 1.909091 0
-0.6363637 -4.239033E-17 1.909091 0
-0.5454547 -4.239033E-17 1.909091 0
-0.4545456 -4.239033E-17 1.909091 0
-0.3636365 -4.239033E-17 1.909091 0
-0.2727273 -4.239033E-17 1.909091 0
-0.1818182 -4.239033E-17 1.909091 0
-0.09090909 -4.239033E-17 1.909091 0
-1 -4.440892E-17 2 0
-0.9090911 -4.440892E-17 2 0
-0.818182 -4.440892E-17 2 0
-0.7272729 -4.440892E-17 2 0
-0.6363638 -4.440892E-17 2 0
-0.5454546 -4.440892E-17 2 0
-0.4545456 -4.440892E-17 2 0
-0.3636365 -4.440892E-17 2 0
-0.2727273 -4.440892E-17 2 0
-0.1818182 -4.440892E-17 2 0
-0.09090909 -4.440892E-17 2 0
0 -4.440892E-17 2 0
-2 0 0 0.1265822
-2.090909 0 0 0.3633126
-2 -2.018587E-18 0.09090909 0.1070296
-2.181818 0 0 0.7963328
-2.090909 -2.018587E-18 0.09090909 0.3145421
-2 -4.037175E-18 0.1818182 0.08347273
-2.272727 0 0 1.61335
-2.181818 -2.018587E-18 0.09090909 0.6886266
-2.090909 -4.037175E-18 0.1818182 0.2553144
-2 -6.055762E-18 0.2727273 0.05930658
-2.363636 0 0 3.021255
-2.272727 -2.018587E-18 0.09090909 1.393468
-2.181818 -4.037175E-18 0.1818182 0.5583092
-2.090909 -6.055762E-18 0.2727273 0.194296
-2 -8.074349E-18 0.3636363 0.03670735
-2.454545 0 0 5.229376
-2.363636 -2.018587E-18 0.09090909 2.606314
-2.272727 -4.037175E-18 0.1818182 1.128424
-2.181818 -6.055762E-18 0.2727273 0.4243879
-2.090909 -8.074349E-18 0.3636363 0.112745
-2 -1.009294E-17 0.4545454 0.02011495
-2.545455 0 0 8.365197
-2.454545 -2.018587E-18 0.09090909 4.505676
-2.363636 -4.037175E-18 0.1818182 2.108024
-2.272727 -6.055762E-18 0.2727273 0.8567297
-2.181818 -8.074349E-18 0.3636363 0.3024476
-2.090909 -1.009294E-17 0.4545454 0.06928504
-2 -1.211152E-17 0.5454545 0.01202855
-2.636364 0 0 12.36532
-2.545455 -2.018587E-18 0.09090909 7.198769
-2.454545 -4.037175E-18 0.1818182 3.639807
-2.363636 -6.055762E-18 0.2727273 1.598554
-2.272727 -8.074349E-18 0.3636363 0.6098493
-2.181818 -1.009294E-17 0.4545454 0.2020842
-2.090909 -1.211152E-17 0.5454545 0.03521159
-2 -1.413011E-17 0.6363636 0
-2.727273 0 0 16.88717
-2.636364 -2.018587E-18 0.09090909 10.62833
-2.545455 -4.037175E-18 0.1818182 5.808308
-2.454545 -6.055762E-18 0.2727273 2.756787
-2.363636 -8.074349E-18 0.3636363 1.136543
-2.272727 -1.009294E-17 0.4545454 0.4070039
-2.181818 -1.211152E-17 0.5454545 0.1006606
-2.090909 -1.413011E-17 0.6363636 0.01675885
-2 -1.61487E-17 0.7272727 0
-2.818182 0 0 21.30267
-2.727273 -2.018587E-18 0.09090909 14.49796
-2.636364 -4.037175E-18 0.1818182 8.565173
-2.545455 -6.055762E-18 0.2727273 4.393882
-2.454545 -8.074349E-18 0.3636363 1.957662
-2.363636 -1.009294E-17 0.4545454 0.7576098
-2.272727 -1.211152E-17 0.5454545 0.2546695
-2.181818 -1.413011E-17 0.6363636 0.05030013
-2.090909 -1.61487E-17 0.7272727 0.001829554
-2 -1.816729E-17 0.8181818 0
-2.909091 0 0 24.81593
-2.818182 -2.018587E-18 0.09090909 18.26791
-2.727273 -4.037175E-18 0.1818182 11.66989
-2.636364 -6.055762E-18 0.2727273 6.471629
-2.545455 -8.074349E-18 0.3636363 3.116432
-2.454545 -1.009294E-17 0.4545454 1.303391
-2.363636 -1.211152E-17 0.5454545 0.4734909
-2.272727 -1.413011E-17 0.6363636 0.1233245
-2.181818 -1.61487E-17 0.7272727 0.01893641
-2.090909 -1.816729E-17 0.8181818 0
-2 -2.018587E-17 0.9090909 0
-3 0 0 26.68878
-2.909091 -2.018587E-18 0.09090909 21.25727
-2.818182 -4.037175E-18 0.1818182 14.6876
-2.727273 -6.055762E-18 0.2727273 8.807073
-2.636364 -8.074349E-18 0.3636363 4.584598
-2.545455 -1.009294E-17 0.4545454 2.072388
-2.454545 -1.211152E-17 0.5454545 0.8136184
-2.363636 -1.413011E-17 0.6363636 0.2774445
-2.272727 -1.61487E-17 0.7272727 0.05753543
-2.181818 -1.816729E-17 0.8181818 0.002804809
-2.090909 -2.018587E-17 0.9090909 0
-2 -2.220446E-17 0.9999999 0
-2 0 0 0.1265822
-2 -2.018587E-18 0.09090906 0.1070296
-1.909091 -2.018587E-18 0.09090906 0.02980975
-2 -4.037175E-18 0.1818182 0.08347273
-1.909091 -4.037175E-18 0.1818182 0.02220624
-1.818182 -4.037175E-18 0.1818182 0.000918004
-2 -6.055761E-18 0.2727272 0.05930658
-1.909091 -6.055761E-18 0.2727272 0.01712904
-1.818182 -6.055761E-18 0.2727272 0
-1.727273 -6.055761E-18 0.2727272 0
-2 -8.074349E-18 0.3636363 0.03670735
-1.909091 -8.074349E-18 0.3636363 0.009921544
-1.818182 -8.074349E-18 0.3636363 0
-1.727273 -8.074349E-18 0.3636363 0
-1.636364 -8.074349E-18 0.3636363 0
-2 -1.009294E-17 0.4545454 0.02011495
-1.909091 -1.009294E-17 0.4545454 0
-1.818182 -1.009294E-17 0.4545454 0
-1.727273 -1.009294E-17 0.4545454 0
-1.636364 -1.009294E-17 0.4545454 0
-1.545455 -1.009294E-17 0.4545454 0
-2 -1.211152E-17 0.5454544 0.01202855
-1.909091 -1.211152E-17 0.5454545 0
-1.818182 -1.211152E-17 0.5454545 0
-1.727273 -1.211152E-17 0.5454545 0
-1.636364 -1.211152E-17 0.5454545 0
-1.545455 -1.211152E-17 0.5454545 0
-1.454545 -1.211152E-17 0.5454545 0
-2 -1.413011E-17 0.6363636 0
-1.909091 -1.413011E-17 0.6363635 0
-1.818182 -1.413011E-17 0.6363636 0
-1.727273 -1.413011E-17 0.6363636 0
-1.636364 -1.413011E-17 0.6363636 0
-1.545455 -1.413011E-17 0.6363636 0
-1.454545 -1.413011E-17 0.6363636 0
-1.363636 -1.413011E-17 0.6363636 0
-2 -1.61487E-17 0.7272727 0
-1.909091 -1.61487E-17 0.7272726 0
-1.818182 -1.61487E-17 0.7272726 0
-1.727273 -1.61487E-17 0.7272726 0
-1.636364 -1.61487E-17 0.7272726 0
-1.545455 -1.61487E-17 0.7272726 0
-1.454545 -1.61487E-17 0.7272726 0
-1.363636 -1.61487E-17 0.7272726 0
-1.272727 -1.61487E-17 0.7272727 0
-2 -1.816729E-17 0.8181818 0
-1.909091 -1.816729E-17 0.8181818 0
-1.818182 -1.816728E-17 0.8181818 0
-1.727273 -1.816729E-17 0.8181817 0
-1.636364 -1.816729E-17 0.8181818 0
-1.545455 -1.816729E-17 0.8181818 0
-1.454545 -1.816729E-17 0.8181818 0
-1.363636 -1.816728E-17 0.8181818 0
-1.272727 -1.816729E-17 0.8181818 0
-1.181818 -1.816729E-17 0.8181818 0
-2 -2.018587E-17 0.9090908 0
-1.909091 -2.018587E-17 0.9090908 0
-1.818182 -2.018587E-17 0.9090909 0
-1.727273 -2.018587E-17 0.9090908 0
-1.636364 -2.018587E-17 0.9090908 0
-1.545455 -2.018587E-17 0.9090909 0
-1.454545 -2.018587E-17 0.9090908 0
-1.363636 -2.018587E-17 0.9090908 0
-1.272727 -2.018587E-17 0.9090908 0
-1.181818 -2.018587E-17 0.9090908 0
-1.090909 -2.018587E-17 0.9090909 0
-2 -2.220446E-17 0.9999999 0
-1.909091 -2.220446E-17 0.9999999 0
-1.818182 -2.220446E-17 0.9999999 0
-1.727273 -2.220446E-17 0.9999999 0
-1.636364 -2.220446E-17 0.9999999 0
-1.545455 -2.220446E-17 0.9999999 0
-1.454545 -2.220446E-17 0.9999999 0
-1.363636 -2.220446E-17 0.9999999 0
-1.272727 -2.220446E-17 0.9999999 0
-1.181818 -2.220446E-17 0.9999999 0
-1.090909 -2.220446E-17 0.9999999 0
-1 -2.220446E-17 0.9999999 0
-3 2.220447E-17 -1 7.072386
-3.090909 2.220447E-17 -1 7.620488
-3 2.018588E-17 -0.9090911 6.146842
-3.181818 2.220447E-17 -1 7.647483
-3.090909 2.018588E-17 -0.9090911 6.443051
-3 1.816729E-17 -0.818182 7.085925
-3.272727 2.220447E-17 -1 7.149506
-3.181818 2.018588E-17 -0.9090911 6.282073
-3.090909 1.816729E-17 -0.818182 7.233398
-3 1.61487E-17 -0.7272729 9.559205
-3.363636 2.220447E-17 -1 6.222002
-3.272727 2.018588E-17 -0.9090911 5.681849
-3.181818 1.816729E-17 -0.8181821 6.82943
-3.090909 1.61487E-17 -0.7272729 9.622984
-3 1.413011E-17 -0.6363638 13.18271
-3.454546 2.220447E-17 -1 5.036432
-3.363636 2.018588E-17 -0.9090911 4.769106
-3.272727 1.816729E-17 -0.818182 5.958326
-3.181818 1.61487E-17 -0.7272729 8.944709
-3.090909 1.413011E-17 -0.6363637 13.19293
-3 1.211153E-17 -0.5454546 17.58665
-3.545455 2.220447E-17 -1 3.781198
-3.454545 2.018588E-17 -0.9090911 3.692838
-3.363636 1.816729E-17 -0.818182 4.802824
-3.272727 1.61487E-17 -0.7272729 7.673095
-3.181818 1.413011E-17 -0.6363638 12.18041
-3.090909 1.211153E-17 -0.5454547 17.57092
-3 1.009294E-17 -0.4545456 22.11544
-3.636364 2.220447E-17 -1 2.624231
-3.545455 2.018588E-17 -0.9090911 2.665944
-3.454546 1.816729E-17 -0.818182 3.587353
-3.363636 1.61487E-17 -0.7272729 6.056069
-3.272727 1.413011E-17 -0.6363637 10.37109
-3.181818 1.211153E-17 -0.5454547 16.19009
-3.090909 1.009294E-17 -0.4545456 22.05945
-3 8.074351E-18 -0.3636365 26.12339
-3.727273 2.220447E-17 -1 1.683366
-3.636364 2.018588E-17 -0.9090911 1.767309
-3.545455 1.816729E-17 -0.818182 2.464297
-3.454546 1.61487E-17 -0.7272729 4.415771
-3.363636 1.413011E-17 -0.6363637 8.14394
-3.272727 1.211153E-17 -0.5454546 13.74788
-3.181818 1.009294E-17 -0.4545456 20.29686
-3.090909 8.074351E-18 -0.3636365 26.03233
-3 6.055763E-18 -0.2727273 28.93066
-3.818182 2.220447E-17 -1 0.9507111
-3.727273 2.018588E-17 -0.9090912 1.041324
-3.636364 1.816729E-17 -0.8181821 1.548947
-3.545455 1.61487E-17 -0.7272729 2.959674
-3.454546 1.413011E-17 -0.6363638 5.891322
-3.363636 1.211153E-17 -0.5454547 10.77099
-3.272727 1.009294E-17 -0.4545456 17.22152
-3.181818 8.074351E-18 -0.3636365 23.93073
-3.090909 6.055763E-18 -0.2727273 28.80193
-3 4.037176E-18 -0.1818182 30.03892
-3.909091 2.220447E-17 -1 0.4324296
-3.818182 2.018588E-17 -0.9090911 0.5434331
-3.727273 1.816729E-17 -0.8181821 0.8859179
-3.636364 1.61487E-17 -0.7272729 1.789654
-3.545455 1.413011E-17 -0.6363637 3.925962
-3.454545 1.211153E-17 -0.5454547 7.777068
-3.363636 1.009294E-17 -0.4545456 13.47098
-3.272727 8.074351E-18 -0.3636365 20.28763
-3.181818 6.055763E-18 -0.2727273 26.45263
-3.090909 4.037176E-18 -0.1818182 29.87604
-3 2.018587E-18 -0.09090909 29.24206
-4 2.220447E-17 -1 0.1503755
-3.909091 2.018588E-17 -0.9090911 0.2294436
-3.818182 1.816729E-17 -0.818182 0.4412709
-3.727273 1.61487E-17 -0.7272729 1.027778
-3.636364 1.413011E-17 -0.6363638 2.41543
-3.545455 1.211153E-17 -0.5454546 5.172766
-3.454546 1.009294E-17 -0.4545456 9.711651
-3.363636 8.074351E-18 -0.3636365 15.85678
-3.272727 6.055763E-18 -0.2727273 22.40638
-3.181818 4.037176E-18 -0.1818182 27.41382
-3.090909 2.018587E-18 -0.09090909 29.05484
-3 0 0 26.68878
-3 2.220447E-17 -1 7.072386
-3 2.018588E-17 -0.9090912 6.146842
-2.909091 2.018588E-17 -0.9090912 5.414217
-3 1.816729E-17 -0.818182 7.085925
-2.909091 1.816729E-17 -0.818182 6.418802
-2.818182 1.816729E-17 -0.818182 5.371841
-3 1.61487E-17 -0.7272729 9.559205
-2.909091 1.61487E-17 -0.7272729 8.757754
-2.818182 1.61487E-17 -0.7272729 7.389219
-2.727273 1.61487E-17 -0.7272729 5.750717
-3 1.413011E-17 -0.6363638 13.18271
-2.909091 1.413011E-17 -0.6363638 12.15477
-2.818182 1.413011E-17 -0.6363638 10.34018
-2.727273 1.413011E-17 -0.6363638 8.11116
-2.636364 1.413011E-17 -0.6363638 5.887374
-3 1.211153E-17 -0.5454547 17.58665
-2.909091 1.211153E-17 -0.5454547 16.23422
-2.818182 1.211153E-17 -0.5454547 13.84391
-2.727273 1.211153E-17 -0.5454547 10.89415
-2.636364 1.211153E-17 -0.5454547 7.921696
-2.545455 1.211153E-17 -0.5454547 5.320861
-3 1.009294E-17 -0.4545456 22.11544
-2.909091 1.009294E-17 -0.4545456 20.45794
-2.818182 1.009294E-17 -0.4545456 17.46716
-2.727273 1.009294E-17 -0.4545456 13.76904
-2.636364 1.009294E-17 -0.4545456 10.02368
-2.545455 1.009294E-17 -0.4545456 6.740708
-2.454545 1.009294E-17 -0.4545456 4.188293
-3 8.074351E-18 -0.3636365 26.12339
-2.909091 8.074351E-18 -0.3636365 24.18997
-2.818182 8.074351E-18 -0.3636365 20.67555
-2.727273 8.074351E-18 -0.3636365 16.31627
-2.636364 8.074351E-18 -0.3636365 11.89176
-2.545455 8.074351E-18 -0.3636365 8.006467
-2.454545 8.074351E-18 -0.3636365 4.980814
-2.363636 8.074351E-18 -0.3636365 2.863545
-3 6.055764E-18 -0.2727273 28.93066
-2.909091 6.055764E-18 -0.2727273 26.81679
-2.818182 6.055764E-18 -0.2727273 22.94537
-2.727273 6.055764E-18 -0.2727273 18.12779
-2.636364 6.055764E-18 -0.2727273 13.22734
-2.545455 6.055764E-18 -0.2727273 8.916297
-2.454545 6.055764E-18 -0.2727273 5.55357
-2.363636 6.055764E-18 -0.2727273 3.196772
-2.272727 6.055764E-18 -0.2727273 1.700809
-3 4.037176E-18 -0.1818182 30.03892
-2.909091 4.037176E-18 -0.1818182 27.8728
-2.818182 4.037176E-18 -0.1818182 23.87463
-2.727273 4.037176E-18 -0.1818182 18.8832
-2.636364 4.037176E-18 -0.1818182 13.79459
-2.545455 4.037176E-18 -0.1818182 9.309781
-2.454545 4.037176E-18 -0.1818182 5.805712
-2.363636 4.037176E-18 -0.1818182 3.346019
-2.272727 4.037176E-18 -0.1818182 1.782413
-2.181818 4.037176E-18 -0.1818182 0.877652
-3 2.018588E-18 -0.09090912 29.24206
-2.909091 2.018588E-18 -0.09090912 27.16157
-2.818182 2.018588E-18 -0.09090912 23.29074
-2.727273 2.018588E-18 -0.09090912 18.44215
-2.636364 2.018588E-18 -0.09090912 13.48814
-2.545455 2.018588E-18 -0.09090912 9.113882
-2.454545 2.018588E-18 -0.09090912 5.690473
-2.363636 2.018588E-18 -0.09090912 3.28363
-2.272727 2.018588E-18 -0.09090912 1.751324
-2.181818 2.018588E-18 -0.09090912 0.8633893
-2.090909 2.018588E-18 -0.09090912 0.3934394
-3 0 0 26.68878
-2.909091 0 0 24.81593
-2.818182 0 0 21.30267
-2.727273 0 0 16.88717
-2.636364 0 0 12.36532
-2.545455 0 0 8.365197
-2.454545 0 0 5.229376
-2.363636 0 0 3.021255
-2.272727 0 0 1.61335
-2.181818 0 0 0.7963328
-2.090909 0 0 0.3633126
-2 0 0 0.1265822
-4 4.440892E-17 -2 10.59155
-4.090909 4.440892E-17 -2 5.201329
-4 4.239033E-17 -1.909091 9.802827
-4.181818 4.440892E-17 -2 2.331855
-4.090909 4.239033E-17 -1.909091 4.791931
-4 4.037175E-17 -1.818182 8.67252
-4.272727 4.440892E-17 -2 0.9256304
-4.181818 4.239033E-17 -1.909091 2.136058
-4.090909 4.037174E-17 -1.818182 4.221995
-4 3.835316E-17 -1.727273 7.311181
-4.363636 4.440892E-17 -2 0.2795739
-4.272727 4.239033E-17 -1.909091 0.8257475
-4.181818 4.037174E-17 -1.818182 1.851333
-4.090909 3.835316E-17 -1.727273 3.533796
-4 3.633457E-17 -1.636364 5.844807
-4.454546 4.440892E-17 -2 0.01826875
-4.363637 4.239033E-17 -1.909091 0.241214
-4.272727 4.037174E-17 -1.818182 0.7133213
-4.181818 3.835316E-17 -1.727273 1.549243
-4.090909 3.633457E-17 -1.636364 2.808074
-4 3.431599E-17 -1.545455 4.435865
-4.545455 4.440892E-17 -2 0
-4.454546 4.239033E-17 -1.909091 0.01572789
-4.363637 4.037174E-17 -1.818182 0.1904833
-4.272728 3.835316E-17 -1.727273 0.5786124
-4.181818 3.633457E-17 -1.636364 1.231528
-4.090909 3.431598E-17 -1.545455 2.120376
-4 3.22974E-17 -1.454545 3.19423
-4.636364 4.440892E-17 -2 0
-4.545455 4.239033E-17 -1.909091 0
-4.454546 4.037174E-17 -1.818182 0.01342473
-4.363637 3.835316E-17 -1.727273 0.1071311
-4.272727 3.633457E-17 -1.636364 0.4410723
-4.181818 3.431598E-17 -1.545455 0.9208928
-4.090909 3.22974E-17 -1.454545 1.511422
-4 3.027881E-17 -1.363636 2.177513
-4.727273 4.440892E-17 -2 0
-4.636364 4.239033E-17 -1.909091 0
-4.545455 4.037174E-17 -1.818182 0
-4.454546 3.835316E-17 -1.727273 0.004545629
-4.363637 3.633457E-17 -1.636364 0.07015748
-4.272728 3.431598E-17 -1.545455 0.283754
-4.181818 3.22974E-17 -1.454545 0.6129958
-4.090909 3.027881E-17 -1.363636 1.014577
-4 2.826023E-17 -1.272727 1.386649
-4.818182 4.440892E-17 -2 0
-4.727273 4.239033E-17 -1.909091 0
-4.636364 4.037174E-17 -1.818182 0
-4.545455 3.835316E-17 -1.727273 0
-4.454546 3.633457E-17 -1.636364 0
-4.363637 3.431598E-17 -1.545455 0.05289184
-4.272727 3.22974E-17 -1.454545 0.1500007
-4.181818 3.027881E-17 -1.363636 0.3774468
-4.090909 2.826023E-17 -1.272727 0.599497
-4 2.624164E-17 -1.181818 0.7970388
-4.909091 4.440892E-17 -2 0
-4.818182 4.239033E-17 -1.909091 0
-4.727273 4.037175E-17 -1.818182 0
-4.636364 3.835316E-17 -1.727273 0
-4.545455 3.633457E-17 -1.636364 0
-4.454546 3.431598E-17 -1.545455 0
-4.363637 3.22974E-17 -1.454545 0.03600943
-4.272727 3.027881E-17 -1.363636 0.09333037
-4.181818 2.826023E-17 -1.272727 0.1720801
-4.090909 2.624164E-17 -1.181818 0.3023238
-4 2.422305E-17 -1.090909 0.3766938
-5 4.440892E-17 -2 0
-4.909091 4.239033E-17 -1.909091 0
-4.818182 4.037175E-17 -1.818182 0
-4.727273 3.835316E-17 -1.727273 0
-4.636364 3.633457E-17 -1.636364 0
-4.545455 3.431598E-17 -1.545455 0
-4.454546 3.22974E-17 -1.454545 0
-4.363636 3.027881E-17 -1.363636 0.01578236
-4.272727 2.826023E-17 -1.272727 0.04623562
-4.181818 2.624164E-17 -1.181818 0.09677925
-4.090909 2.422305E-17 -1.090909 0.1300618
-4 2.220447E-17 -1 0.1503755
-4 4.440892E-17 -2 10.59155
-4 4.239033E-17 -1.909091 9.802827
-3.909091 4.239033E-17 -1.909091 18.55009
-4 4.037175E-17 -1.818182 8.67252
-3.909091 4.037175E-17 -1.818182 16.47428
-3.818182 4.037175E-17 -1.818182 28.81512
-4 3.835316E-17 -1.727273 7.311181
-3.909091 3.835316E-17 -1.727273 13.90351
-3.818182 3.835316E-17 -1.727273 24.40742
-3.727273 3.835316E-17 -1.727273 39.62862
-4 3.633457E-17 -1.636364 5.844807
-3.909091 3.633457E-17 -1.636364 11.16557
-3.818182 3.633457E-17 -1.636364 19.62836
-3.727273 3.633457E-17 -1.636364 31.91196
-3.636364 3.633457E-17 -1.636364 48.08644
-4 3.431598E-17 -1.545455 4.435865
-3.909091 3.431599E-17 -1.545455 8.475418
-3.818182 3.431598E-17 -1.545455 14.95201
-3.727273 3.431598E-17 -1.545455 24.35615
-3.636364 3.431599E-17 -1.545455 36.72035
-3.545455 3.431599E-17 -1.545455 51.37172
-4 3.22974E-17 -1.454545 3.19423
-3.909091 3.22974E-17 -1.454545 6.112555
-3.818182 3.22974E-17 -1.454545 10.80392
-3.727273 3.22974E-17 -1.454545 17.60842
-3.636364 3.22974E-17 -1.454546 26.55073
-3.545455 3.22974E-17 -1.454546 37.1296
-3.454546 3.22974E-17 -1.454545 48.23437
-4 3.027881E-17 -1.363636 2.177513
-3.909091 3.027881E-17 -1.363636 4.168864
-3.818182 3.027881E-17 -1.363636 7.390429
-3.727273 3.027881E-17 -1.363636 12.04636
-3.636364 3.027881E-17 -1.363636 18.18378
-3.545455 3.027881E-17 -1.363636 25.41357
-3.454546 3.027881E-17 -1.363636 33.01301
-3.363636 3.027881E-17 -1.363636 39.84869
-4 2.826023E-17 -1.272727 1.386649
-3.909091 2.826023E-17 -1.272727 2.695051
-3.818182 2.826023E-17 -1.272727 4.757138
-3.727273 2.826023E-17 -1.272727 7.799341
-3.636364 2.826023E-17 -1.272727 11.79576
-3.545455 2.826023E-17 -1.272727 16.52336
-3.454546 2.826023E-17 -1.272727 21.45391
-3.363636 2.826023E-17 -1.272727 25.86936
-3.272727 2.826023E-17 -1.272727 29.04346
-4 2.624164E-17 -1.181818 0.7970388
-3.909091 2.624164E-17 -1.181818 1.634366
-3.818182 2.624164E-17 -1.181818 2.906134
-3.727273 2.624164E-17 -1.181818 4.790245
-3.636364 2.624164E-17 -1.181818 7.293013
-3.545455 2.624164E-17 -1.181818 10.22379
-3.454545 2.624164E-17 -1.181818 13.29908
-3.363636 2.624164E-17 -1.181818 16.06151
-3.272727 2.624164E-17 -1.181818 18.0337
-3.181818 2.624164E-17 -1.181818 18.86126
-4 2.422305E-17 -1.090909 0.3766938
-3.909091 2.422305E-17 -1.090909 0.9039856
-3.818182 2.422305E-17 -1.090909 1.710008
-3.727273 2.422305E-17 -1.090909 2.840839
-3.636364 2.422305E-17 -1.090909 4.351156
-3.545455 2.422305E-17 -1.090909 6.148399
-3.454546 2.422305E-17 -1.090909 8.033218
-3.363636 2.422305E-17 -1.090909 9.75233
-3.272727 2.422305E-17 -1.090909 11.01491
-3.181818 2.422305E-17 -1.090909 11.59029
-3.090909 2.422305E-17 -1.090909 11.35822
-4 2.220447E-17 -1 0.1503755
-3.909091 2.220447E-17 -1 0.4324296
-3.818182 2.220447E-17 -1 0.9507111
-3.727273 2.220447E-17 -1 1.683366
-3.636364 2.220447E-17 -1 2.624231
-3.545455 2.220447E-17 -1 3.781198
-3.454546 2.220447E-17 -1 5.036432
-3.363636 2.220447E-17 -1 6.222002
-3.272727 2.220447E-17 -1 7.149506
-3.181818 2.220447E-17 -1 7.647483
-3.090909 2.220447E-17 -1 7.620488
-3 2.220447E-17 -1 7.072386
-5 6.661338E-17 -3 0
-5 6.459479E-17 -2.909091 0
-4.909091 6.45948E-17 -2.909091 0
-5 6.257621E-17 -2.818182 0
-4.909091 6.257621E-17 -2.818182 0
-4.818182 6.257621E-17 -2.818182 0
-5 6.055762E-17 -2.727273 0
-4.909091 6.055762E-17 -2.727273 0
-4.818182 6.055762E-17 -2.727273 0
-4.727273 6.055762E-17 -2.727273 0
-5 5.853904E-17 -2.636364 0
-4.909091 5.853904E-17 -2.636364 0
-4.818182 5.853904E-17 -2.636364 0
-4.727273 5.853904E-17 -2.636364 0
-4.636364 5.853904E-17 -2.636364 0
-5 5.652044E-17 -2.545455 0
-4.909091 5.652044E-17 -2.545455 0
-4.818182 5.652044E-17 -2.545455 0
-4.727273 5.652044E-17 -2.545455 0
-4.636364 5.652044E-17 -2.545455 0
-4.545455 5.652044E-17 -2.545455 0.02059633
-5 5.450186E-17 -2.454545 0
-4.909091 5.450186E-17 -2.454545 0
-4.818182 5.450186E-17 -2.454545 0
-4.727273 5.450186E-17 -2.454545 0
-4.636364 5.450186E-17 -2.454545 0
-4.545455 5.450186E-17 -2.454545 0.01442397
-4.454546 5.450186E-17 -2.454545 0.0922801
-5 5.248327E-17 -2.363636 0
-4.909091 5.248327E-17 -2.363636 0
-4.818182 5.248327E-17 -2.363636 0
-4.727273 5.248327E-17 -2.363636 0
-4.636364 5.248327E-17 -2.363636 0
-4.545455 5.248327E-17 -2.363636 0
-4.454546 5.248327E-17 -2.363636 0.07888211
-4.363636 5.248327E-17 -2.363636 0.3349069
-5 5.046468E-17 -2.272727 0
-4.909091 5.046468E-17 -2.272727 0
-4.818182 5.046468E-17 -2.272727 0
-4.727273 5.046468E-17 -2.272727 0
-4.636364 5.046468E-17 -2.272727 0
-4.545455 5.046468E-17 -2.272727 0
-4.454546 5.046468E-17 -2.272727 0.06073914
-4.363636 5.046468E-17 -2.272727 0.3402958
-4.272727 5.046468E-17 -2.272727 0.9426613
-5 4.84461E-17 -2.181818 0
-4.909091 4.84461E-17 -2.181818 0
-4.818182 4.844609E-17 -2.181818 0
-4.727273 4.844609E-17 -2.181818 0
-4.636364 4.844609E-17 -2.181818 0
-4.545455 4.844609E-17 -2.181818 0
-4.454546 4.84461E-17 -2.181818 0.0413921
-4.363636 4.844609E-17 -2.181818 0.3329304
-4.272727 4.84461E-17 -2.181818 0.9804631
-4.181818 4.84461E-17 -2.181818 2.476374
-5 4.64275E-17 -2.090909 0
-4.909091 4.642751E-17 -2.090909 0
-4.818182 4.642751E-17 -2.090909 0
-4.727273 4.64275E-17 -2.090909 0
-4.636364 4.64275E-17 -2.090909 0
-4.545455 4.64275E-17 -2.090909 0
-4.454546 4.642751E-17 -2.090909 0.03532071
-4.363636 4.64275E-17 -2.090909 0.3111753
-4.272727 4.642751E-17 -2.090909 0.9800906
-4.181818 4.642751E-17 -2.090909 2.445595
-4.090909 4.642751E-17 -2.090909 5.405673
-5 4.440892E-17 -2 0
-4.909091 4.440892E-17 -2 0
-4.818182 4.440892E-17 -2 0
-4.727273 4.440892E-17 -2 0
-4.636364 4.440892E-17 -2 0
-4.545455 4.440892E-17 -2 0
-4.454546 4.440892E-17 -2 0.01826875
-4.363636 4.440892E-17 -2 0.2795739
-4.272727 4.440892E-17 -2 0.9256304
-4.181818 4.440892E-17 -2 2.331855
-4.090909 4.440892E-17 -2 5.201329
-4 4.440892E-17 -2 10.59155
-4 6.661338E-17 -3 2.938033
-4.090909 6.661338E-17 -3 1.581152
-4 6.45948E-17 -2.909091 3.835472
-4.181818 6.661338E-17 -3 0.7852692
-4.090909 6.45948E-17 -2.909091 2.080413
-4 6.257621E-17 -2.818182 4.840152
-4.272727 6.661338E-17 -3 0.3693662
-4.181818 6.45948E-17 -2.909091 1.008287
-4.090909 6.257621E-17 -2.818182 2.589841
-4 6.055762E-17 -2.727273 5.930958
-4.363636 6.661338E-17 -3 0.1589149
-4.272727 6.45948E-17 -2.909091 0.4615532
-4.181818 6.257621E-17 -2.818182 1.263904
-4.090909 6.055762E-17 -2.727273 3.091357
-4 5.853904E-17 -2.636364 6.992878
-4.454546 6.661338E-17 -3 0.05642751
-4.363637 6.45948E-17 -2.909091 0.1984751
-4.272727 6.257621E-17 -2.818182 0.5432832
-4.181818 6.055762E-17 -2.727273 1.505722
-4.090909 5.853904E-17 -2.636364 3.635984
-4 5.652044E-17 -2.545455 8.009991
-4.545455 6.661338E-17 -3 0
-4.454546 6.45948E-17 -2.909091 0.07323948
-4.363637 6.257621E-17 -2.818182 0.2336642
-4.272728 6.055761E-17 -2.727273 0.6430977
-4.181818 5.853904E-17 -2.636364 1.723386
-4.090909 5.652044E-17 -2.545455 4.177518
-4 5.450186E-17 -2.454545 8.97209
-4.636364 6.661338E-17 -3 0
-4.545455 6.45948E-17 -2.909091 0.01176629
-4.454546 6.257621E-17 -2.818182 0.08760062
-4.363637 6.055762E-17 -2.727273 0.259819
-4.272727 5.853903E-17 -2.636364 0.7452313
-4.181818 5.652044E-17 -2.545455 1.912888
-4.090909 5.450186E-17 -2.454545 4.63236
-4 5.248327E-17 -2.363636 9.83099
-4.727273 6.661338E-17 -3 0
-4.636364 6.45948E-17 -2.909091 0
-4.545455 6.257621E-17 -2.818182 0.01877949
-4.454546 6.055762E-17 -2.727273 0.09754147
-4.363637 5.853903E-17 -2.636364 0.2733715
-4.272728 5.652044E-17 -2.545455 0.8222706
-4.181818 5.450186E-17 -2.454545 2.151762
-4.090909 5.248327E-17 -2.363636 5.007668
-4 5.046468E-17 -2.272727 10.51785
-4.818182 6.661338E-17 -3 0
-4.727273 6.45948E-17 -2.909091 0
-4.636364 6.257621E-17 -2.818182 0
-4.545455 6.055761E-17 -2.727273 0.02256755
-4.454546 5.853903E-17 -2.636364 0.1025853
-4.363637 5.652044E-17 -2.545455 0.2865729
-4.272727 5.450186E-17 -2.454545 0.880015
-4.181818 5.248327E-17 -2.363636 2.326645
-4.090909 5.046468E-17 -2.272727 5.287332
-4 4.84461E-17 -2.181818 10.91757
-4.909091 6.661338E-17 -3 0
-4.818182 6.45948E-17 -2.909091 0
-4.727273 6.257621E-17 -2.818182 0
-4.636364 6.055762E-17 -2.727273 0
-4.545455 5.853903E-17 -2.636364 0.02350057
-4.454546 5.652044E-17 -2.545455 0.1003647
-4.363637 5.450186E-17 -2.454545 0.3155533
-4.272727 5.248327E-17 -2.363636 0.9212252
-4.181818 5.046468E-17 -2.272727 2.435937
-4.090909 4.84461E-17 -2.181818 5.436256
-4 4.64275E-17 -2.090909 10.95947
-5 6.661338E-17 -3 0
-4.909091 6.45948E-17 -2.909091 0
-4.818182 6.257621E-17 -2.818182 0
-4.727273 6.055762E-17 -2.727273 0
-4.636364 5.853904E-17 -2.636364 0
-4.545455 5.652044E-17 -2.545455 0.02059626
-4.454546 5.450186E-17 -2.454545 0.0922801
-4.363636 5.248327E-17 -2.363636 0.3349069
-4.272727 5.046468E-17 -2.272727 0.9426613
-4.181818 4.84461E-17 -2.181818 2.476374
-4.090909 4.64275E-17 -2.090909 5.405673
-4 4.440892E-17 -2 10.59155
-5 8.881785E-17 -4 0
-5 8.679926E-17 -3.909091 0
-4.909091 8.679926E-17 -3.909091 0
-5 8.478067E-17 -3.818182 0
-4.909091 8.478067E-17 -3.818182 0
-4.818182 8.478067E-17 -3.818182 0
-5 8.276208E-17 -3.727273 0
-4.909091 8.276209E-17 -3.727273 0
-4.818182 8.276209E-17 -3.727273 0
-4.727273 8.276209E-17 -3.727273 0
-5 8.07435E-17 -3.636364 0
-4.909091 8.07435E-17 -3.636364 0
-4.818182 8.07435E-17 -3.636364 0
-4.727273 8.07435E-17 -3.636364 0
-4.636364 8.07435E-17 -3.636364 0
-5 7.872491E-17 -3.545455 0
-4.909091 7.872491E-17 -3.545455 0
-4.818182 7.872491E-17 -3.545455 0
-4.727273 7.872492E-17 -3.545455 0
-4.636364 7.872492E-17 -3.545455 0
-4.545455 7.872491E-17 -3.545455 0
-5 7.670632E-17 -3.454545 0
-4.909091 7.670632E-17 -3.454546 0
-4.818182 7.670632E-17 -3.454546 0
-4.727273 7.670632E-17 -3.454546 0
-4.636364 7.670632E-17 -3.454546 0
-4.545455 7.670632E-17 -3.454546 0
-4.454546 7.670632E-17 -3.454546 0
-5 7.468774E-17 -3.363636 0
-4.909091 7.468773E-17 -3.363636 0
-4.818182 7.468774E-17 -3.363636 0
-4.727273 7.468774E-17 -3.363636 0
-4.636364 7.468774E-17 -3.363636 0
-4.545455 7.468774E-17 -3.363636 0
-4.454546 7.468773E-17 -3.363637 0
-4.363636 7.468774E-17 -3.363636 0.02720327
-5 7.266915E-17 -3.272727 0
-4.909091 7.266915E-17 -3.272727 0
-4.818182 7.266915E-17 -3.272727 0
-4.727273 7.266915E-17 -3.272727 0
-4.636364 7.266915E-17 -3.272727 0
-4.545455 7.266915E-17 -3.272727 0
-4.454546 7.266915E-17 -3.272727 0.007586161
-4.363636 7.266915E-17 -3.272727 0.05065194
-4.272727 7.266915E-17 -3.272727 0.1311645
-5 7.065055E-17 -3.181818 0
-4.909091 7.065056E-17 -3.181818 0
-4.818182 7.065056E-17 -3.181818 0
-4.727273 7.065055E-17 -3.181818 0
-4.636364 7.065055E-17 -3.181818 0
-4.545455 7.065055E-17 -3.181818 0
-4.454546 7.065055E-17 -3.181818 0.02375664
-4.363636 7.065056E-17 -3.181818 0.08220229
-4.272727 7.065056E-17 -3.181818 0.1973066
-4.181818 7.065055E-17 -3.181818 0.4181545
-5 6.863197E-17 -3.090909 0
-4.909091 6.863197E-17 -3.090909 0
-4.818182 6.863197E-17 -3.090909 0
-4.727273 6.863197E-17 -3.090909 0
-4.636364 6.863197E-17 -3.090909 0
-4.545455 6.863197E-17 -3.090909 0
-4.454546 6.863197E-17 -3.090909 0.03931879
-4.363636 6.863198E-17 -3.090909 0.1179872
-4.272727 6.863198E-17 -3.090909 0.2781321
-4.181818 6.863197E-17 -3.090909 0.5872259
-4.090909 6.863197E-17 -3.090909 1.160955
-5 6.661338E-17 -3 0
-4.909091 6.661338E-17 -3 0
-4.818182 6.661338E-17 -3 0
-4.727273 6.661338E-17 -3 0
-4.636364 6.661338E-17 -3 0
-4.545455 6.661338E-17 -3 0
-4.454546 6.661338E-17 -3 0.05642751
-4.363636 6.661338E-17 -3 0.1589149
-4.272727 6.661338E-17 -3 0.3693662
-4.181818 6.661338E-17 -3 0.7852692
-4.090909 6.661338E-17 -3 1.581152
-4 6.661338E-17 -3 2.938033
-3 4.440892E-17 -2 208.8559
-3.090909 4.440892E-17 -2 222.6021
-3 4.239033E-17 -1.909091 194.3549
-3.181818 4.440892E-17 -2 223.1754
-3.090909 4.239033E-17 -1.909091 207.992
-3 4.037175E-17 -1.818182 171.8356
-3.272727 4.440892E-17 -2 210.0066
-3.181818 4.239033E-17 -1.909091 209.1386
-3.090909 4.037174E-17 -1.818182 184.642
-3 3.835316E-17 -1.727273 144.2077
-3.363636 4.440892E-17 -2 185.0887
-3.272727 4.239033E-17 -1.909091 197.1715
-3.181818 4.037174E-17 -1.818182 186.2189
-3.090909 3.835316E-17 -1.727273 155.5692
-3 3.633457E-17 -1.636364 114.7821
-3.454546 4.440892E-17 -2 152.4941
-3.363636 4.239033E-17 -1.909091 173.9451
-3.272727 4.037174E-17 -1.818182 175.9278
-3.181818 3.835316E-17 -1.727273 157.3684
-3.090909 3.633457E-17 -1.636364 124.2966
-3 3.431599E-17 -1.545455 86.57819
-3.545455 4.440892E-17 -2 117.2455
-3.454545 4.239033E-17 -1.909091 143.3302
-3.363636 4.037174E-17 -1.818182 155.3978
-3.272727 3.835316E-17 -1.727273 148.9921
-3.181818 3.633457E-17 -1.636364 126.1024
-3.090909 3.431598E-17 -1.545455 94.09763
-3 3.22974E-17 -1.454545 61.86509
-3.636364 4.440892E-17 -2 83.98715
-3.545455 4.239033E-17 -1.909091 110.1282
-3.454546 4.037174E-17 -1.818182 128.1134
-3.363636 3.835316E-17 -1.727273 131.7929
-3.272727 3.633457E-17 -1.636364 119.6504
