ply
format ascii 1.0
element vertex 1361
property float x
property float y
property float z
property float value
end_header
-0.2307693 -4.270088E-17 1.923077 28.99965
-0.1538462 -4.270088E-17 1.923077 24.70542
-0.07692309 -4.270088E-17 1.923077 19.64697
-1 -4.440892E-17 2 8.009739
-0.9230772 -4.440892E-17 2 9.649003
-0.846154 -4.440892E-17 2 11.6229
-0.769231 -4.440892E-17 2 13.97603
-0.6923079 -4.440892E-17 2 16.63794
-0.6153847 -4.440892E-17 2 19.38632
-0.5384617 -4.440892E-17 2 21.85775
-0.4615386 -4.440892E-17 2 23.61447
-0.3846155 -4.440892E-17 2 24.25595
-0.3076923 -4.440892E-17 2 23.53175
-0.2307693 -4.440892E-17 2 21.4768
-0.1538462 -4.440892E-17 2 18.3562
-0.07692309 -4.440892E-17 2 14.6428
0 -4.440892E-17 2 10.86954
-2 0 0 1.935058
-2.076923 0 0 3.430699
-2 -1.708035E-18 0.07692307 2.539668
-2.153846 0 0 5.609929
-2.076923 -1.708035E-18 0.07692307 4.506471
-2 -3.416071E-18 0.1538461 3.136579
-2.230769 0 0 8.492525
-2.153846 -1.708035E-18 0.07692307 7.394086
-2.076923 -3.416071E-18 0.1538461 5.579252
-2 -5.124106E-18 0.2307692 3.649621
-2.307692 0 0 11.88669
-2.230769 -1.708035E-18 0.07692307 11.23554
-2.153846 -3.416071E-18 0.1538461 9.207244
-2.076923 -5.124106E-18 0.2307692 6.517855
-2 -6.832142E-18 0.3076923 4.001775
-2.384615 0 0 15.37542
-2.307692 -1.708035E-18 0.07692307 15.75485
-2.230769 -3.416071E-18 0.1538461 13.99468
-2.153846 -5.124106E-18 0.2307692 10.778
-2.076923 -6.832142E-18 0.3076923 7.197516
-2 -8.540177E-18 0.3846154 4.137319
-2.461538 0 0 18.43293
-2.384615 -1.708035E-18 0.07692307 20.47336
-2.307692 -3.416071E-18 0.1538461 19.71002
-2.230769 -5.124106E-18 0.2307692 16.45006
-2.153846 -6.832142E-18 0.3076923 11.90416
-2.076923 -8.540177E-18 0.3846154 7.470079
-2 -1.024821E-17 0.4615384 4.039515
-2.538462 0 0 20.50258
-2.461538 -1.708035E-18 0.07692307 24.68167
-2.384615 -3.416071E-18 0.1538461 25.74958
-2.307692 -5.124106E-18 0.2307692 23.28544
-2.230769 -6.832142E-18 0.3076923 18.25586
-2.153846 -8.540177E-18 0.3846154 12.41062
-2.076923 -1.024821E-17 0.4615384 7.316569
-2 -1.195625E-17 0.5384615 3.724428
-2.615385 0 0 21.18122
-2.538461 -1.708035E-18 0.07692307 27.63593
-2.461538 -3.416071E-18 0.1538461 31.24137
-2.384615 -5.124106E-18 0.2307692 30.6073
-2.307692 -6.832142E-18 0.3076923 25.99275
-2.230769 -8.540177E-18 0.3846154 19.13814
-2.153846 -1.024821E-17 0.4615384 12.21922
-2.076923 -1.195625E-17 0.5384615 6.76607
-2 -1.366428E-17 0.6153846 3.249482
-2.692308 0 0 20.34838
-2.615385 -1.708035E-18 0.07692307 28.77519
-2.538461 -3.416071E-18 0.1538461 35.24747
-2.461538 -5.124106E-18 0.2307692 37.40844
-2.384615 -6.832142E-18 0.3076923 34.40759
-2.307692 -8.540177E-18 0.3846154 27.43336
-2.230769 -1.024821E-17 0.4615384 18.96436
-2.153846 -1.195625E-17 0.5384615 11.36875
-2.076923 -1.366428E-17 0.6153846 5.91102
-2 -1.537232E-17 0.6923077 2.6658
-2.769231 0 0 18.1995
-2.692308 -1.708035E-18 0.07692307 27.89665
-2.615385 -3.416071E-18 0.1538461 37.02872
-2.538462 -5.124106E-18 0.2307692 42.57295
-2.461538 -6.832142E-18 0.3076923 42.40832
-2.384615 -8.540177E-18 0.3846154 36.61063
-2.307692 -1.024821E-17 0.4615384 27.39714
-2.230769 -1.195625E-17 0.5384615 17.77647
-2.153846 -1.366428E-17 0.6153846 10.00267
-2.076923 -1.537232E-17 0.6923077 4.881842
-2 -1.708035E-17 0.7692307 2.066792
-2.846154 0 0 15.17121
-2.769231 -1.708035E-18 0.07692307 25.21157
-2.692308 -3.416071E-18 0.1538461 36.26839
-2.615385 -5.124106E-18 0.2307692 45.1775
-2.538461 -6.832142E-18 0.3076923 48.74157
-2.461538 -8.540177E-18 0.3846154 45.55954
-2.384615 -1.024821E-17 0.4615384 36.90487
-2.307692 -1.195625E-17 0.5384615 25.91325
-2.230769 -1.366428E-17 0.6153846 15.77619
-2.153846 -1.537232E-17 0.6923077 8.329534
-2.076923 -1.708035E-17 0.7692307 3.814641
-2 -1.878839E-17 0.8461538 1.515508
-2.923077 0 0 11.79859
-2.846154 -1.708035E-18 0.07692307 21.2628
-2.769231 -3.416071E-18 0.1538461 33.15944
-2.692308 -5.124106E-18 0.2307692 44.76085
-2.615385 -6.832142E-18 0.3076923 52.31347
-2.538461 -8.540177E-18 0.3846154 52.95106
-2.461538 -1.024821E-17 0.4615384 46.43063
-2.384615 -1.195625E-17 0.5384615 35.28028
-2.307692 -1.366428E-17 0.6153846 23.23662
-2.230769 -1.537232E-17 0.6923077 13.26919
-2.153846 -1.708035E-17 0.7692307 6.57132
-2.076923 -1.878839E-17 0.8461538 2.822846
-2 -2.049642E-17 0.9230769 1.045779
-3 0 0 8.566252
-2.923077 -1.708035E-18 0.07692307 16.74825
-2.846154 -3.416071E-18 0.1538461 28.32571
-2.769231 -5.124106E-18 0.2307692 41.45036
-2.692308 -6.832142E-18 0.3076923 52.49555
-2.615385 -8.540177E-18 0.3846154 57.55511
-2.538462 -1.024821E-17 0.4615384 54.64343
-2.461538 -1.195625E-17 0.5384615 44.93784
-2.384615 -1.366428E-17 0.6153846 32.02144
-2.307692 -1.537232E-17 0.6923077 19.77642
-2.230769 -1.708035E-17 0.7692307 10.5891
-2.153846 -1.878839E-17 0.8461538 4.916906
-2.076923 -2.049642E-17 0.9230769 1.980361
-2 -2.220446E-17 0.9999999 0.6530935
-2 0 0 1.935058
-2 -1.708035E-18 0.07692306 2.539668
-1.923077 -1.708035E-18 0.07692306 1.317301
-2 -3.41607E-18 0.1538461 3.136579
-1.923077 -3.41607E-18 0.1538461 1.625402
-1.846154 -3.41607E-18 0.1538461 0.7749395
-2 -5.124106E-18 0.2307692 3.649621
-1.923077 -5.124106E-18 0.2307692 1.88829
-1.846154 -5.124106E-18 0.2307692 0.8993411
-1.769231 -5.124106E-18 0.2307692 0.3902374
-2 -6.832141E-18 0.3076923 4.001775
-1.923077 -6.832141E-18 0.3076923 2.066226
-1.846154 -6.832141E-18 0.3076923 0.9816386
-1.769231 -6.832141E-18 0.3076923 0.4264682
-1.692308 -6.832141E-18 0.3076923 0.1577301
-2 -8.540176E-18 0.3846153 4.137319
-1.923077 -8.540177E-18 0.3846153 2.129373
-1.846154 -8.540176E-18 0.3846153 1.008107
-1.769231 -8.540176E-18 0.3846153 0.4369332
-1.692308 -8.540177E-18 0.3846153 0.1606691
-1.615385 -8.540176E-18 0.3846153 0.043582
-2 -1.024821E-17 0.4615384 4.039515
-1.923077 -1.024821E-17 0.4615384 2.067345
-1.846154 -1.024821E-17 0.4615384 0.9742403
-1.769231 -1.024821E-17 0.4615384 0.4206727
-1.692308 -1.024821E-17 0.4615384 0.1531743
-1.615385 -1.024821E-17 0.4615384 0.04095317
-1.538462 -1.024821E-17 0.4615384 0.006496585
-2 -1.195625E-17 0.5384615 3.724428
-1.923077 -1.195625E-17 0.5384615 1.891118
-1.846154 -1.195625E-17 0.5384614 0.8867973
-1.769231 -1.195625E-17 0.5384614 0.3813321
-1.692308 -1.195625E-17 0.5384615 0.1347835
-1.615385 -1.195625E-17 0.5384615 0.04452297
-1.538462 -1.195625E-17 0.5384615 0.02968209
-1.461539 -1.195625E-17 0.5384615 0.05338369
-2 -1.366428E-17 0.6153845 3.249482
-1.923077 -1.366428E-17 0.6153845 1.629275
-1.846154 -1.366428E-17 0.6153846 0.7577759
-1.769231 -1.366428E-17 0.6153846 0.3229057
-1.692308 -1.366428E-17 0.6153846 0.1211982
-1.615385 -1.366428E-17 0.6153846 0.06711814
-1.538462 -1.366428E-17 0.6153846 0.0721973
-1.461538 -1.366428E-17 0.6153845 0.117685
-1.384615 -1.366428E-17 0.6153846 0.1732779
-2 -1.537232E-17 0.6923077 2.6658
-1.923077 -1.537232E-17 0.6923076 1.322542
-1.846154 -1.537232E-17 0.6923076 0.6084837
-1.769231 -1.537232E-17 0.6923076 0.268298
-1.692308 -1.537232E-17 0.6923076 0.112705
-1.615385 -1.537232E-17 0.6923076 0.1032665
-1.538462 -1.537232E-17 0.6923077 0.1442857
-1.461538 -1.537232E-17 0.6923076 0.2311875
-1.384615 -1.537232E-17 0.6923076 0.3382879
-1.307693 -1.537232E-17 0.6923077 0.4560494
-2 -1.708035E-17 0.7692307 2.066792
-1.923077 -1.708035E-17 0.7692307 1.010443
-1.846154 -1.708035E-17 0.7692307 0.4624887
-1.769231 -1.708035E-17 0.7692307 0.2223573
-1.692308 -1.708035E-17 0.7692307 0.1307526
-1.615385 -1.708035E-17 0.7692307 0.1648938
-1.538461 -1.708035E-17 0.7692307 0.264599
-1.461539 -1.708035E-17 0.7692307 0.4212267
-1.384615 -1.708035E-17 0.7692307 0.6152584
-1.307692 -1.708035E-17 0.7692307 0.8300952
-1.230769 -1.708035E-17 0.7692307 1.050093
-2 -1.878839E-17 0.8461538 1.515508
-1.923077 -1.878839E-17 0.8461538 0.7248859
-1.846154 -1.878839E-17 0.8461538 0.346074
-1.769231 -1.878839E-17 0.8461537 0.1799958
-1.692308 -1.878839E-17 0.8461537 0.1719893
-1.615385 -1.878839E-17 0.8461537 0.2620416
-1.538461 -1.878839E-17 0.8461537 0.4530896
-1.461539 -1.878839E-17 0.8461537 0.7182059
-1.384615 -1.878839E-17 0.8461537 1.050013
-1.307693 -1.878839E-17 0.8461537 1.418301
-1.230769 -1.878839E-17 0.8461538 1.818514
-1.153846 -1.878839E-17 0.8461538 2.213779
-2 -2.049642E-17 0.9230769 1.045779
-1.923077 -2.049642E-17 0.9230769 0.495123
-1.846154 -2.049642E-17 0.9230769 0.2544648
-1.769231 -2.049642E-17 0.9230769 0.1680425
-1.692308 -2.049642E-17 0.9230768 0.2416722
-1.615385 -2.049642E-17 0.9230768 0.4210059
-1.538462 -2.049642E-17 0.9230769 0.7262669
-1.461539 -2.049642E-17 0.9230769 1.151857
-1.384615 -2.049642E-17 0.9230769 1.684305
-1.307692 -2.049642E-17 0.9230769 2.292546
-1.230769 -2.049642E-17 0.9230769 2.946112
-1.153846 -2.049642E-17 0.9230769 3.564749
-1.076923 -2.049642E-17 0.9230769 4.112791
-2 -2.220446E-17 0.9999999 0.6530935
-1.923077 -2.220446E-17 0.9999999 0.3170528
-1.846154 -2.220446E-17 0.9999999 0.1792952
-1.769231 -2.220446E-17 0.9999999 0.1973283
-1.692308 -2.220446E-17 0.9999999 0.3375283
-1.615385 -2.220446E-17 0.9999999 0.6350391
-1.538462 -2.220446E-17 0.9999999 1.094169
-1.461539 -2.220446E-17 0.9999999 1.735595
-1.384615 -2.220446E-17 0.9999999 2.542542
-1.307692 -2.220446E-17 0.9999999 3.481817
-1.230769 -2.220446E-17 0.9999999 4.478385
-1.153846 -2.220446E-17 0.9999999 5.403189
-1.076923 -2.220446E-17 0.9999999 6.25855
-1 -2.220446E-17 0.9999999 7.099241
-3 2.220447E-17 -1 0
-3.076923 2.220447E-17 -1 0
-3 2.049643E-17 -0.9230772 0
-3.153846 2.220447E-17 -1 0
-3.076923 2.049643E-17 -0.9230771 0
-3 1.87884E-17 -0.846154 0
-3.230769 2.220447E-17 -1 0
-3.153846 2.049643E-17 -0.9230771 0
-3.076923 1.878839E-17 -0.846154 0
-3 1.708036E-17 -0.769231 0
-3.307693 2.220447E-17 -1 0
-3.230769 2.049643E-17 -0.9230772 0
-3.153846 1.878839E-17 -0.846154 0
-3.076923 1.708036E-17 -0.769231 0
-3 1.537232E-17 -0.6923078 0
-3.384616 2.220447E-17 -1 0
-3.307693 2.049643E-17 -0.9230771 0
-3.230769 1.87884E-17 -0.846154 0
-3.153846 1.708036E-17 -0.7692309 0
-3.076923 1.537232E-17 -0.6923078 0
-3 1.366429E-17 -0.6153847 0
-3.461539 2.220447E-17 -1 0
-3.384616 2.049643E-17 -0.9230771 0
-3.307693 1.87884E-17 -0.846154 0
-3.230769 1.708036E-17 -0.769231 0
-3.153846 1.537232E-17 -0.6923078 0
-3.076923 1.366429E-17 -0.6153848 0
-3 1.195625E-17 -0.5384616 0.1176397
-3.538462 2.220447E-17 -1 0
-3.461539 2.049643E-17 -0.9230772 0
-3.384616 1.878839E-17 -0.846154 0
-3.307693 1.708036E-17 -0.769231 0
-3.23077 1.537232E-17 -0.6923078 0
-3.153846 1.366429E-17 -0.6153848 0
-3.076923 1.195625E-17 -0.5384617 0.05000471
-3 1.024821E-17 -0.4615386 0.304816
-3.615385 2.220447E-17 -1 0
-3.538462 2.049643E-17 -0.9230771 0
-3.461539 1.878839E-17 -0.846154 0
-3.384615 1.708036E-17 -0.769231 0
-3.307693 1.537232E-17 -0.6923078 0
-3.230769 1.366429E-17 -0.6153848 0
-3.153846 1.195625E-17 -0.5384617 0
-3.076923 1.024821E-17 -0.4615386 0.1706528
-3 8.540178E-18 -0.3846155 0.6139608
-3.692308 2.220447E-17 -1 0
-3.615385 2.049643E-17 -0.9230771 0
-3.538462 1.878839E-17 -0.846154 0
-3.461539 1.708036E-17 -0.769231 0
-3.384616 1.537232E-17 -0.6923078 0
-3.307693 1.366429E-17 -0.6153847 0
-3.23077 1.195625E-17 -0.5384617 0
-3.153846 1.024821E-17 -0.4615385 0.07130218
-3.076923 8.540179E-18 -0.3846154 0.3819937
-3 6.832143E-18 -0.3076923 1.20396
-3.769231 2.220447E-17 -1 0
-3.692308 2.049643E-17 -0.9230772 0
-3.615385 1.878839E-17 -0.846154 0
-3.538462 1.708036E-17 -0.769231 0
-3.461539 1.537232E-17 -0.6923078 0
-3.384615 1.366429E-17 -0.6153848 0
-3.307693 1.195625E-17 -0.5384616 0
-3.230769 1.024821E-17 -0.4615386 0
-3.153846 8.540178E-18 -0.3846155 0.2031218
-3.076923 6.832143E-18 -0.3076923 0.7716312
-3 5.124107E-18 -0.2307693 2.125415
-3.846154 2.220447E-17 -1 0
-3.769231 2.049643E-17 -0.9230772 0
-3.692308 1.87884E-17 -0.8461541 0
-3.615385 1.708036E-17 -0.7692309 0
-3.538462 1.537232E-17 -0.6923078 0
-3.461539 1.366429E-17 -0.6153848 0
-3.384616 1.195625E-17 -0.5384616 0
-3.307693 1.024822E-17 -0.4615386 0
-3.230769 8.540178E-18 -0.3846155 0.07811174
-3.153846 6.832143E-18 -0.3076923 0.4271179
-3.076923 5.124107E-18 -0.2307693 1.387798
-3 3.416071E-18 -0.1538462 3.560272
-3.923077 2.220447E-17 -1 0
-3.846154 2.049643E-17 -0.9230771 0
-3.769231 1.878839E-17 -0.846154 0
-3.692308 1.708036E-17 -0.769231 0
-3.615385 1.537232E-17 -0.6923078 0
-3.538462 1.366429E-17 -0.6153847 0
-3.461539 1.195625E-17 -0.5384617 0
-3.384616 1.024821E-17 -0.4615386 0
-3.307693 8.540179E-18 -0.3846155 0
-3.230769 6.832143E-18 -0.3076924 0.2132478
-3.153846 5.124108E-18 -0.2307693 0.8445618
-3.076923 3.416071E-18 -0.1538462 2.351945
-3 1.708036E-18 -0.07692309 5.6641
-4 2.220447E-17 -1 0
-3.923077 2.049643E-17 -0.9230772 0
-3.846154 1.87884E-17 -0.846154 0
-3.769231 1.708036E-17 -0.769231 0
-3.692308 1.537232E-17 -0.6923079 0
-3.615385 1.366429E-17 -0.6153847 0
-3.538462 1.195625E-17 -0.5384617 0
-3.461539 1.024821E-17 -0.4615386 0
-3.384616 8.540178E-18 -0.3846155 0
-3.307693 6.832143E-18 -0.3076923 0.0456395
-3.230769 5.124107E-18 -0.2307693 0.4686774
-3.153846 3.416071E-18 -0.1538462 1.449286
-3.076923 1.708036E-18 -0.07692309 3.789204
-3 0 0 8.566241
-3 2.220447E-17 -1 0
-3 2.049643E-17 -0.9230772 0
-2.923077 2.049643E-17 -0.9230772 0
-3 1.87884E-17 -0.846154 0
-2.923077 1.87884E-17 -0.846154 0
-2.846154 1.87884E-17 -0.846154 0
-3 1.708036E-17 -0.769231 0
-2.923077 1.708036E-17 -0.769231 0
-2.846154 1.708036E-17 -0.769231 0
-2.769231 1.708036E-17 -0.769231 0
-3 1.537232E-17 -0.6923079 0
-2.923077 1.537232E-17 -0.6923079 0
-2.846154 1.537232E-17 -0.6923079 0.00918852
-2.769231 1.537232E-17 -0.6923079 0.03013437
-2.692308 1.537232E-17 -0.6923079 0.04023872
-3 1.366429E-17 -0.6153848 0
-2.923077 1.366429E-17 -0.6153848 0.06001969
-2.846154 1.366429E-17 -0.6153848 0.1134018
-2.769231 1.366429E-17 -0.6153848 0.1684224
-2.692308 1.366429E-17 -0.6153848 0.2028729
-2.615385 1.366429E-17 -0.6153848 0.222281
-3 1.195625E-17 -0.5384617 0.1176397
-2.923077 1.195625E-17 -0.5384617 0.2119049
-2.846154 1.195625E-17 -0.5384617 0.299531
-2.769231 1.195625E-17 -0.5384617 0.3854508
-2.692307 1.195625E-17 -0.5384617 0.4564164
-2.615385 1.195625E-17 -0.5384617 0.496174
-2.538462 1.195625E-17 -0.5384617 0.4973912
-3 1.024822E-17 -0.4615386 0.304816
-2.923077 1.024822E-17 -0.4615386 0.4570619
-2.846154 1.024822E-17 -0.4615386 0.6305389
-2.769231 1.024822E-17 -0.4615386 0.8003105
-2.692308 1.024822E-17 -0.4615386 0.9392089
-2.615385 1.024822E-17 -0.4615386 1.016994
-2.538461 1.024822E-17 -0.4615386 1.017756
-2.461538 1.024822E-17 -0.4615386 0.938482
-3 8.540179E-18 -0.3846155 0.6139608
-2.923077 8.540179E-18 -0.3846155 0.9078755
-2.846154 8.540179E-18 -0.3846155 1.23631
-2.769231 8.540179E-18 -0.3846155 1.555766
-2.692307 8.540179E-18 -0.3846155 1.811054
-2.615385 8.540179E-18 -0.3846155 1.951391
-2.538461 8.540179E-18 -0.3846155 1.943214
-2.461538 8.540179E-18 -0.3846155 1.7896
-2.384615 8.540179E-18 -0.3846155 1.520999
-3 6.832144E-18 -0.3076924 1.20396
-2.923077 6.832144E-18 -0.3076924 1.734007
-2.846154 6.832144E-18 -0.3076924 2.321535
-2.769231 6.832144E-18 -0.3076924 2.886515
-2.692307 6.832144E-18 -0.3076924 3.318763
-2.615385 6.832144E-18 -0.3076924 3.53626
-2.538461 6.832144E-18 -0.3076924 3.497951
-2.461538 6.832144E-18 -0.3076924 3.206642
-2.384615 6.832144E-18 -0.3076924 2.718526
-2.307692 6.832144E-18 -0.3076924 2.128812
-3 5.124108E-18 -0.2307693 2.125415
-2.923077 5.124108E-18 -0.2307693 3.031775
-2.846154 5.124108E-18 -0.2307693 4.024457
-2.769231 5.124108E-18 -0.2307693 4.9666
-2.692307 5.124108E-18 -0.2307693 5.692552
-2.615385 5.124108E-18 -0.2307693 6.053706
-2.538461 5.124108E-18 -0.2307693 5.967512
-2.461538 5.124108E-18 -0.2307693 5.424488
-2.384615 5.124108E-18 -0.2307693 4.57576
-2.307692 5.124108E-18 -0.2307693 3.574137
-2.230769 5.124108E-18 -0.2307693 2.578997
-3 3.416072E-18 -0.1538462 3.560272
-2.923077 3.416072E-18 -0.1538462 5.024682
-2.846154 3.416072E-18 -0.1538462 6.606562
-2.769231 3.416072E-18 -0.1538462 8.084924
-2.692308 3.416072E-18 -0.1538462 9.199325
-2.615385 3.416072E-18 -0.1538462 9.721957
-2.538461 3.416072E-18 -0.1538462 9.53282
-2.461538 3.416072E-18 -0.1538462 8.664421
-2.384615 3.416072E-18 -0.1538462 7.277055
-2.307692 3.416072E-18 -0.1538462 5.653169
-2.230769 3.416072E-18 -0.1538462 4.06996
-2.153846 3.416072E-18 -0.1538462 2.706976
-3 1.708036E-18 -0.07692309 5.6641
-2.923077 1.708036E-18 -0.07692309 7.901037
-2.846154 1.708036E-18 -0.07692309 10.27889
-2.769231 1.708036E-18 -0.07692309 12.461
-2.692307 1.708036E-18 -0.07692309 14.06222
-2.615385 1.708036E-18 -0.07692309 14.75606
-2.538462 1.708036E-18 -0.07692309 14.38186
-2.461538 1.708036E-18 -0.07692309 13.0054
-2.384615 1.708036E-18 -0.07692309 10.90102
-2.307692 1.708036E-18 -0.07692309 8.447948
-2.230769 1.708036E-18 -0.07692309 6.050243
-2.153846 1.708036E-18 -0.07692309 4.014712
-2.076923 1.708036E-18 -0.07692309 2.459737
-3 0 0 8.566252
-2.923077 0 0 11.79859
-2.846154 0 0 15.17121
-2.769231 0 0 18.1995
-2.692308 0 0 20.34839
-2.615385 0 0 21.18123
-2.538462 0 0 20.50258
-2.461538 0 0 18.43293
-2.384615 0 0 15.37542
-2.307692 0 0 11.8867
-2.230769 0 0 8.492527
-2.153846 0 0 5.609931
-2.076923 0 0 3.430701
-2 0 0 1.935058
-4 4.440892E-17 -2 0
-4.076923 4.440892E-17 -2 0
-4 4.270088E-17 -1.923077 0
-4.153847 4.440892E-17 -2 0
-4.076923 4.270088E-17 -1.923077 0
-4 4.099285E-17 -1.846154 0
-4.23077 4.440892E-17 -2 0
-4.153847 4.270088E-17 -1.923077 0
-4.076924 4.099285E-17 -1.846154 0
-4 3.928481E-17 -1.769231 0
-4.307693 4.440892E-17 -2 0
-4.230769 4.270088E-17 -1.923077 0
-4.153847 4.099285E-17 -1.846154 0
-4.076923 3.928481E-17 -1.769231 0
-4 3.757678E-17 -1.692308 0
-4.384616 4.440892E-17 -2 0
-4.307693 4.270089E-17 -1.923077 0
-4.230769 4.099285E-17 -1.846154 0
-4.153847 3.928482E-17 -1.769231 0
-4.076923 3.757678E-17 -1.692308 0
-4 3.586875E-17 -1.615385 0
-4.461538 4.440892E-17 -2 0
-4.384616 4.270088E-17 -1.923077 0
-4.307693 4.099285E-17 -1.846154 0
-4.23077 3.928481E-17 -1.769231 0
-4.153847 3.757678E-17 -1.692308 0
-4.076924 3.586875E-17 -1.615385 0
-4 3.416071E-17 -1.538462 0
-4.538462 4.440892E-17 -2 0
-4.461539 4.270088E-17 -1.923077 0
-4.384616 4.099285E-17 -1.846154 0
-4.307693 3.928481E-17 -1.769231 0
-4.230769 3.757678E-17 -1.692308 0
-4.153847 3.586875E-17 -1.615385 0
-4.076923 3.416071E-17 -1.538462 0
-4 3.245267E-17 -1.461539 0
-4.615385 4.440892E-17 -2 0
-4.538462 4.270088E-17 -1.923077 0
-4.461538 4.099285E-17 -1.846154 0
-4.384616 3.928481E-17 -1.769231 0
-4.307693 3.757678E-17 -1.692308 0
-4.23077 3.586875E-17 -1.615385 0
-4.153847 3.416071E-17 -1.538462 0
-4.076924 3.245267E-17 -1.461538 0
-4 3.074464E-17 -1.384615 0
-4.692308 4.440892E-17 -2 0
-4.615385 4.270088E-17 -1.923077 0
-4.538462 4.099285E-17 -1.846154 0
-4.461538 3.928481E-17 -1.769231 0
-4.384616 3.757678E-17 -1.692308 0
-4.307693 3.586875E-17 -1.615385 0
-4.230769 3.416071E-17 -1.538462 0
-4.153847 3.245267E-17 -1.461538 0
-4.076923 3.074464E-17 -1.384615 0
-4 2.903661E-17 -1.307693 0
-4.769231 4.440892E-17 -2 0
-4.692308 4.270088E-17 -1.923077 0
-4.615385 4.099285E-17 -1.846154 0
-4.538462 3.928482E-17 -1.769231 0
-4.461538 3.757678E-17 -1.692308 0
-4.384616 3.586874E-17 -1.615385 0
-4.307693 3.416071E-17 -1.538461 0
-4.23077 3.245267E-17 -1.461539 0
-4.153847 3.074464E-17 -1.384615 0
-4.076923 2.90366E-17 -1.307692 0
-4 2.732857E-17 -1.230769 0
-4.846154 4.440892E-17 -2 0
-4.769231 4.270088E-17 -1.923077 0
-4.692308 4.099285E-17 -1.846154 0
-4.615385 3.928481E-17 -1.769231 0
-4.538462 3.757678E-17 -1.692308 0
-4.461538 3.586874E-17 -1.615385 0
-4.384616 3.416071E-17 -1.538461 0
-4.307693 3.245267E-17 -1.461539 0
-4.230769 3.074464E-17 -1.384615 0
-4.153847 2.90366E-17 -1.307693 0
-4.076924 2.732857E-17 -1.230769 0
-4 2.562054E-17 -1.153846 0
-4.923077 4.440892E-17 -2 0
-4.846154 4.270088E-17 -1.923077 0
-4.769231 4.099285E-17 -1.846154 0
-4.692308 3.928481E-17 -1.769231 0
-4.615385 3.757678E-17 -1.692308 0
-4.538462 3.586874E-17 -1.615385 0
-4.461539 3.416071E-17 -1.538462 0
-4.384616 3.245267E-17 -1.461539 0
-4.307693 3.074464E-17 -1.384615 0
-4.230769 2.90366E-17 -1.307692 0
-4.153847 2.732857E-17 -1.230769 0
-4.076923 2.562054E-17 -1.153846 0
-4 2.39125E-17 -1.076923 0
-5 4.440892E-17 -2 0
-4.923077 4.270088E-17 -1.923077 0
-4.846154 4.099285E-17 -1.846154 0
-4.769231 3.928481E-17 -1.769231 0
-4.692308 3.757678E-17 -1.692308 0
-4.615385 3.586874E-17 -1.615385 0
-4.538462 3.416071E-17 -1.538462 0
-4.461538 3.245267E-17 -1.461539 0
-4.384616 3.074464E-17 -1.384615 0
-4.307693 2.90366E-17 -1.307692 0
-4.23077 2.732857E-17 -1.230769 0
-4.153847 2.562054E-17 -1.153846 0
-4.076923 2.39125E-17 -1.076923 0
-4 2.220447E-17 -1 0
-4 4.440892E-17 -2 0
-4 4.270088E-17 -1.923077 0
-3.923077 4.270088E-17 -1.923077 0
-4 4.099285E-17 -1.846154 0
-3.923077 4.099285E-17 -1.846154 0
-3.846154 4.099285E-17 -1.846154 0
-4 3.928481E-17 -1.769231 0
-3.923077 3.928481E-17 -1.769231 0
-3.846154 3.928481E-17 -1.769231 0
-3.769231 3.928481E-17 -1.769231 0
-4 3.757678E-17 -1.692308 0
-3.923077 3.757678E-17 -1.692308 0
-3.846154 3.757678E-17 -1.692308 0
-3.769231 3.757678E-17 -1.692308 0
-3.692308 3.757678E-17 -1.692308 0
-4 3.586875E-17 -1.615385 0
-3.923077 3.586875E-17 -1.615385 0
-3.846154 3.586875E-17 -1.615385 0
-3.769231 3.586875E-17 -1.615385 0
-3.692308 3.586875E-17 -1.615385 0
-3.615385 3.586875E-17 -1.615385 0
-4 3.416071E-17 -1.538462 0
-3.923077 3.416071E-17 -1.538462 0
-3.846154 3.416071E-17 -1.538461 0
-3.769231 3.416071E-17 -1.538462 0
-3.692308 3.416071E-17 -1.538462 0
-3.615385 3.416071E-17 -1.538462 0
-3.538462 3.416071E-17 -1.538462 0
-4 3.245267E-17 -1.461539 0
-3.923078 3.245267E-17 -1.461539 0
-3.846154 3.245267E-17 -1.461538 0
-3.769231 3.245267E-17 -1.461539 0
-3.692308 3.245267E-17 -1.461539 0
-3.615385 3.245267E-17 -1.461538 0
-3.538462 3.245267E-17 -1.461539 0
-3.461539 3.245267E-17 -1.461539 0
-4 3.074464E-17 -1.384615 0
-3.923077 3.074464E-17 -1.384615 0
-3.846154 3.074464E-17 -1.384615 0
-3.769231 3.074464E-17 -1.384615 0
-3.692308 3.074464E-17 -1.384615 0
-3.615385 3.074464E-17 -1.384616 0
-3.538462 3.074464E-17 -1.384615 0
-3.461539 3.074464E-17 -1.384615 0
-3.384616 3.074464E-17 -1.384615 0
-4 2.903661E-17 -1.307693 0
-3.923077 2.903661E-17 -1.307692 0
-3.846154 2.90366E-17 -1.307692 0
-3.769231 2.903661E-17 -1.307692 0
-3.692308 2.903661E-17 -1.307692 0
-3.615385 2.903661E-17 -1.307692 0
-3.538462 2.90366E-17 -1.307692 0
-3.461539 2.903661E-17 -1.307692 0
-3.384616 2.903661E-17 -1.307692 0
-3.307692 2.903661E-17 -1.307693 0
-4 2.732857E-17 -1.230769 0
-3.923077 2.732857E-17 -1.230769 0
-3.846154 2.732857E-17 -1.230769 0
-3.769231 2.732857E-17 -1.230769 0
-3.692308 2.732857E-17 -1.230769 0
-3.615385 2.732857E-17 -1.230769 0
-3.538462 2.732857E-17 -1.230769 0
-3.461539 2.732857E-17 -1.230769 0
-3.384616 2.732857E-17 -1.230769 0
-3.307693 2.732857E-17 -1.230769 0
-3.230769 2.732857E-17 -1.230769 0
-4 2.562054E-17 -1.153846 0
-3.923078 2.562054E-17 -1.153846 0
-3.846154 2.562054E-17 -1.153846 0
-3.769231 2.562053E-17 -1.153846 0
-3.692308 2.562054E-17 -1.153846 0
-3.615385 2.562054E-17 -1.153846 0
-3.538462 2.562053E-17 -1.153846 0
-3.461539 2.562054E-17 -1.153846 0
-3.384616 2.562054E-17 -1.153846 0
-3.307693 2.562053E-17 -1.153846 0
-3.230769 2.562053E-17 -1.153846 0
-3.153846 2.562054E-17 -1.153846 0
-4 2.39125E-17 -1.076923 0
-3.923078 2.39125E-17 -1.076923 0
-3.846154 2.39125E-17 -1.076923 0
-3.769231 2.39125E-17 -1.076923 0
-3.692308 2.39125E-17 -1.076923 0
-3.615385 2.39125E-17 -1.076923 0
-3.538462 2.39125E-17 -1.076923 0
-3.461539 2.39125E-17 -1.076923 0
-3.384615 2.39125E-17 -1.076923 0
-3.307693 2.39125E-17 -1.076923 0
-3.230769 2.39125E-17 -1.076923 0
-3.153846 2.39125E-17 -1.076923 0
-3.076923 2.39125E-17 -1.076923 0
-4 2.220447E-17 -1 0
-3.923077 2.220447E-17 -1 0
-3.846154 2.220447E-17 -1 0
-3.769231 2.220447E-17 -1 0
-3.692308 2.220447E-17 -1 0
-3.615385 2.220447E-17 -1 0
-3.538462 2.220447E-17 -1 0
-3.461539 2.220447E-17 -1 0
-3.384616 2.220447E-17 -1 0
-3.307693 2.220447E-17 -1 0
-3.230769 2.220447E-17 -1 0
-3.153846 2.220447E-17 -1 0
-3.076923 2.220447E-17 -1 0
-3 2.220447E-17 -1 0
-5 6.661338E-17 -3 0
-5 6.490535E-17 -2.923077 0
-4.923077 6.490535E-17 -2.923077 0
-5 6.319731E-17 -2.846154 0
-4.923077 6.319731E-17 -2.846154 0
-4.846154 6.319731E-17 -2.846154 0
-5 6.148928E-17 -2.769231 0
-4.923077 6.148928E-17 -2.769231 0
-4.846154 6.148928E-17 -2.769231 0
-4.769231 6.148928E-17 -2.769231 0
-5 5.978124E-17 -2.692308 0
-4.923077 5.978124E-17 -2.692307 0
-4.846154 5.978124E-17 -2.692308 0
-4.769231 5.978124E-17 -2.692308 0
-4.692308 5.978124E-17 -2.692308 0
-5 5.807321E-17 -2.615385 0
-4.923077 5.807321E-17 -2.615385 0
-4.846154 5.807321E-17 -2.615385 0
-4.769231 5.807321E-17 -2.615385 0
-4.692308 5.807321E-17 -2.615385 0
-4.615385 5.807321E-17 -2.615385 0
-5 5.636517E-17 -2.538461 0
-4.923077 5.636517E-17 -2.538461 0
-4.846154 5.636517E-17 -2.538461 0
-4.769231 5.636517E-17 -2.538461 0
-4.692308 5.636517E-17 -2.538461 0
-4.615385 5.636517E-17 -2.538461 0
-4.538462 5.636517E-17 -2.538462 0
-5 5.465714E-17 -2.461538 0
-4.923077 5.465713E-17 -2.461538 0
-4.846154 5.465713E-17 -2.461538 0
-4.769231 5.465713E-17 -2.461538 0
-4.692307 5.465713E-17 -2.461538 0
-4.615385 5.465713E-17 -2.461539 0
-4.538462 5.465713E-17 -2.461538 0
-4.461539 5.465714E-17 -2.461538 0
-5 5.294909E-17 -2.384615 0
-4.923077 5.294909E-17 -2.384615 0
-4.846154 5.294909E-17 -2.384615 0
-4.769231 5.294909E-17 -2.384615 0
-4.692307 5.29491E-17 -2.384615 0
-4.615385 5.29491E-17 -2.384615 0
-4.538462 5.29491E-17 -2.384615 0
-4.461539 5.29491E-17 -2.384615 0
-4.384616 5.29491E-17 -2.384615 0
-5 5.124106E-17 -2.307692 0
-4.923077 5.124106E-17 -2.307692 0
-4.846154 5.124106E-17 -2.307692 0
-4.769231 5.124106E-17 -2.307692 0
-4.692307 5.124106E-17 -2.307692 0
-4.615385 5.124106E-17 -2.307692 0
-4.538462 5.124106E-17 -2.307692 0
-4.461538 5.124107E-17 -2.307692 0
-4.384616 5.124107E-17 -2.307692 0
-4.307693 5.124106E-17 -2.307692 0
-5 4.953302E-17 -2.230769 0
-4.923077 4.953302E-17 -2.230769 0
-4.846154 4.953302E-17 -2.230769 0
-4.769231 4.953303E-17 -2.230769 0
-4.692307 4.953302E-17 -2.230769 0
-4.615385 4.953302E-17 -2.230769 0
-4.538462 4.953302E-17 -2.230769 0
-4.461538 4.953302E-17 -2.230769 0
-4.384616 4.953303E-17 -2.230769 0
-4.307693 4.953302E-17 -2.230769 0
-4.23077 4.953302E-17 -2.230769 0
-5 4.782499E-17 -2.153846 0
-4.923077 4.782499E-17 -2.153846 0
-4.846154 4.782499E-17 -2.153846 0
-4.769231 4.782499E-17 -2.153846 0
-4.692307 4.782499E-17 -2.153846 0
-4.615385 4.782499E-17 -2.153846 0
-4.538462 4.782499E-17 -2.153846 0
-4.461539 4.782499E-17 -2.153846 0
-4.384616 4.782499E-17 -2.153846 0
-4.307693 4.782499E-17 -2.153846 0
-4.23077 4.782499E-17 -2.153846 0
-4.153847 4.782499E-17 -2.153846 0
-5 4.611695E-17 -2.076923 0
-4.923077 4.611695E-17 -2.076923 0
-4.846154 4.611695E-17 -2.076923 0
-4.769231 4.611695E-17 -2.076923 0
-4.692307 4.611695E-17 -2.076923 0
-4.615385 4.611695E-17 -2.076923 0
-4.538462 4.611695E-17 -2.076923 0
-4.461539 4.611695E-17 -2.076923 0
-4.384616 4.611696E-17 -2.076923 0
-4.307693 4.611695E-17 -2.076923 0
-4.23077 4.611695E-17 -2.076923 0
-4.153847 4.611695E-17 -2.076923 0
-4.076923 4.611695E-17 -2.076923 0
-5 4.440892E-17 -2 0
-4.923077 4.440892E-17 -2 0
-4.846154 4.440892E-17 -2 0
-4.769231 4.440892E-17 -2 0
-4.692308 4.440892E-17 -2 0
-4.615385 4.440892E-17 -2 0
-4.538462 4.440892E-17 -2 0
-4.461538 4.440892E-17 -2 0
-4.384616 4.440892E-17 -2 0
-4.307693 4.440892E-17 -2 0
-4.23077 4.440892E-17 -2 0
-4.153847 4.440892E-17 -2 0
-4.076923 4.440892E-17 -2 0
-4 4.440892E-17 -2 0
-4 6.661338E-17 -3 0
-4.076923 6.661338E-17 -3 0
-4 6.490535E-17 -2.923077 0
-4.153847 6.661338E-17 -3 0
-4.076923 6.490535E-17 -2.923077 0
-4 6.319731E-17 -2.846154 0
-4.23077 6.661338E-17 -3 0
-4.153847 6.490535E-17 -2.923077 0
-4.076924 6.319731E-17 -2.846154 0
-4 6.148928E-17 -2.769231 0
-4.307693 6.661338E-17 -3 0
-4.230769 6.490535E-17 -2.923077 0
-4.153847 6.319731E-17 -2.846154 0
-4.076923 6.148928E-17 -2.769231 0
-4 5.978124E-17 -2.692308 0
-4.384616 6.661338E-17 -3 0
-4.307693 6.490535E-17 -2.923077 0
-4.230769 6.319731E-17 -2.846154 0
-4.153847 6.148928E-17 -2.769231 0
-4.076923 5.978124E-17 -2.692308 0
-4 5.807321E-17 -2.615385 0
-4.461538 6.661338E-17 -3 0
-4.384616 6.490535E-17 -2.923077 0
-4.307693 6.319731E-17 -2.846154 0
-4.23077 6.148928E-17 -2.769231 0
-4.153847 5.978124E-17 -2.692307 0
-4.076924 5.807321E-17 -2.615385 0
-4 5.636517E-17 -2.538462 0
-4.538462 6.661338E-17 -3 0
-4.461539 6.490535E-17 -2.923077 0
-4.384616 6.319731E-17 -2.846154 0
-4.307693 6.148927E-17 -2.769231 0
-4.230769 5.978124E-17 -2.692308 0
-4.153847 5.80732E-17 -2.615385 0
-4.076923 5.636517E-17 -2.538461 0
-4 5.465713E-17 -2.461538 0
-4.615385 6.661338E-17 -3 0
-4.538462 6.490534E-17 -2.923077 0
-4.461538 6.319731E-17 -2.846154 0
-4.384616 6.148928E-17 -2.769231 0
-4.307693 5.978124E-17 -2.692307 0
-4.23077 5.80732E-17 -2.615385 0
-4.153847 5.636517E-17 -2.538461 0
-4.076924 5.465714E-17 -2.461538 0
-4 5.29491E-17 -2.384615 0
-4.692308 6.661338E-17 -3 0
-4.615385 6.490534E-17 -2.923077 0
-4.538462 6.319731E-17 -2.846154 0
-4.461538 6.148927E-17 -2.769231 0
-4.384616 5.978124E-17 -2.692307 0
-4.307693 5.80732E-17 -2.615385 0
-4.230769 5.636517E-17 -2.538461 0
-4.153847 5.465714E-17 -2.461538 0
-4.076923 5.29491E-17 -2.384615 0
-4 5.124106E-17 -2.307692 0
-4.769231 6.661338E-17 -3 0
-4.692308 6.490535E-17 -2.923077 0
-4.615385 6.319731E-17 -2.846154 0
-4.538462 6.148928E-17 -2.769231 0
-4.461538 5.978124E-17 -2.692307 0
-4.384616 5.80732E-17 -2.615385 0
-4.307693 5.636517E-17 -2.538461 0
-4.23077 5.465713E-17 -2.461538 0
-4.153847 5.29491E-17 -2.384615 0
-4.076923 5.124106E-17 -2.307692 0
-4 4.953302E-17 -2.230769 0
-4.846154 6.661338E-17 -3 0
-4.769231 6.490535E-17 -2.923077 0
-4.692308 6.319731E-17 -2.846154 0
-4.615385 6.148927E-17 -2.769231 0
-4.538462 5.978124E-17 -2.692308 0
-4.461538 5.80732E-17 -2.615385 0
-4.384616 5.636517E-17 -2.538461 0
-4.307693 5.465713E-17 -2.461538 0
-4.230769 5.29491E-17 -2.384615 0
-4.153847 5.124106E-17 -2.307692 0
-4.076924 4.953302E-17 -2.230769 0
-4 4.782499E-17 -2.153846 0
-4.923077 6.661338E-17 -3 0
-4.846154 6.490535E-17 -2.923077 0
-4.769231 6.319731E-17 -2.846154 0
-4.692308 6.148928E-17 -2.769231 0
-4.615385 5.978124E-17 -2.692307 0
-4.538462 5.80732E-17 -2.615385 0
-4.461539 5.636517E-17 -2.538462 0
-4.384616 5.465714E-17 -2.461538 0
-4.307693 5.29491E-17 -2.384615 0
-4.230769 5.124106E-17 -2.307692 0
-4.153847 4.953302E-17 -2.230769 0
-4.076923 4.782499E-17 -2.153846 0
-4 4.611695E-17 -2.076923 0
-5 6.661338E-17 -3 0
-4.923077 6.490535E-17 -2.923077 0
-4.846154 6.319731E-17 -2.846154 0
-4.769231 6.148928E-17 -2.769231 0
-4.692308 5.978124E-17 -2.692308 0
-4.615385 5.80732E-17 -2.615385 0
-4.538462 5.636517E-17 -2.538462 0
-4.461538 5.465713E-17 -2.461538 0
-4.384616 5.29491E-17 -2.384615 0
-4.307693 5.124106E-17 -2.307692 0
-4.23077 4.953302E-17 -2.230769 0
-4.153847 4.782499E-17 -2.153846 0
-4.076923 4.611695E-17 -2.076923 0
-4 4.440892E-17 -2 0
-5 8.881785E-17 -4 0
-5 8.710981E-17 -3.923077 0
-4.923077 8.710981E-17 -3.923077 0
-5 8.540178E-17 -3.846154 0
-4.923077 8.540178E-17 -3.846154 0
-4.846154 8.540178E-17 -3.846154 0
-5 8.369374E-17 -3.769231 0
-4.923077 8.369374E-17 -3.769231 0
-4.846154 8.369374E-17 -3.769231 0
-4.769231 8.369374E-17 -3.769231 0
-5 8.198571E-17 -3.692308 0
-4.923077 8.198571E-17 -3.692308 0
-4.846154 8.198571E-17 -3.692308 0
-4.769231 8.198571E-17 -3.692308 0
-4.692308 8.198571E-17 -3.692308 0
-5 8.027767E-17 -3.615385 0
-4.923077 8.027767E-17 -3.615385 0
-4.846154 8.027767E-17 -3.615385 0
-4.769231 8.027767E-17 -3.615385 0
-4.692308 8.027767E-17 -3.615385 0
-4.615385 8.027767E-17 -3.615385 0
-5 7.856964E-17 -3.538462 0
-4.923077 7.856964E-17 -3.538462 0
-4.846154 7.856964E-17 -3.538462 0
-4.769231 7.856964E-17 -3.538462 0
-4.692308 7.856964E-17 -3.538462 0
-4.615385 7.856964E-17 -3.538462 0
-4.538462 7.856964E-17 -3.538462 0
-5 7.68616E-17 -3.461539 0
-4.923077 7.68616E-17 -3.461539 0
-4.846154 7.68616E-17 -3.461539 0
-4.769231 7.68616E-17 -3.461539 0
-4.692307 7.68616E-17 -3.461539 0
-4.615385 7.68616E-17 -3.461539 0
-4.538462 7.68616E-17 -3.461539 0
-4.461539 7.68616E-17 -3.461539 0
-5 7.515356E-17 -3.384615 0
-4.923077 7.515356E-17 -3.384616 0
-4.846154 7.515356E-17 -3.384615 0
-4.769231 7.515356E-17 -3.384616 0
-4.692307 7.515357E-17 -3.384616 0
-4.615385 7.515356E-17 -3.384616 0
-4.538462 7.515357E-17 -3.384615 0
-4.461539 7.515357E-17 -3.384616 0
-4.384616 7.515357E-17 -3.384616 0
-5 7.344553E-17 -3.307693 0
-4.923077 7.344553E-17 -3.307693 0
-4.846154 7.344553E-17 -3.307693 0
-4.769231 7.344553E-17 -3.307693 0
-4.692307 7.344553E-17 -3.307692 0
-4.615385 7.344553E-17 -3.307692 0
-4.538462 7.344553E-17 -3.307693 0
-4.461538 7.344553E-17 -3.307693 0
-4.384616 7.344553E-17 -3.307693 0
-4.307693 7.344553E-17 -3.307693 0
-5 7.17375E-17 -3.230769 0
-4.923077 7.17375E-17 -3.230769 0
-4.846154 7.173749E-17 -3.230769 0
-4.769231 7.17375E-17 -3.23077 0
-4.692307 7.173749E-17 -3.230769 0
-4.615385 7.173749E-17 -3.230769 0
-4.538462 7.173749E-17 -3.230769 0
-4.461538 7.173749E-17 -3.230769 0
-4.384616 7.17375E-17 -3.230769 0
-4.307693 7.173749E-17 -3.230769 0
-4.23077 7.17375E-17 -3.230769 0
-5 7.002945E-17 -3.153846 0
-4.923077 7.002945E-17 -3.153846 0
-4.846154 7.002945E-17 -3.153846 0
-4.769231 7.002945E-17 -3.153846 0
-4.692307 7.002945E-17 -3.153846 0
-4.615385 7.002945E-17 -3.153846 0
-4.538462 7.002945E-17 -3.153846 0
-4.461539 7.002945E-17 -3.153846 0
-4.384616 7.002945E-17 -3.153846 0
-4.307693 7.002945E-17 -3.153846 0
-4.23077 7.002945E-17 -3.153846 0
-4.153847 7.002945E-17 -3.153846 0
-5 6.832142E-17 -3.076923 0
-4.923077 6.832142E-17 -3.076923 0
-4.846154 6.832143E-17 -3.076923 0
-4.769231 6.832143E-17 -3.076923 0
-4.692307 6.832142E-17 -3.076923 0
-4.615385 6.832141E-17 -3.076923 0
-4.538462 6.832142E-17 -3.076923 0
-4.461539 6.832142E-17 -3.076923 0
-4.384616 6.832142E-17 -3.076923 0
-4.307693 6.832142E-17 -3.076923 0
-4.23077 6.832142E-17 -3.076923 0
-4.153847 6.832142E-17 -3.076923 0
-4.076923 6.832142E-17 -3.076923 0
-5 6.661338E-17 -3 0
-4.923077 6.661338E-17 -3 0
-4.846154 6.661338E-17 -3 0
-4.769231 6.661338E-17 -3 0
-4.692308 6.661338E-17 -3 0
-4.615385 6.661338E-17 -3 0
-4.538462 6.661338E-17 -3 0
-4.461538 6.661338E-17 -3 0
-4.384616 6.661338E-17 -3 0
-4.307693 6.661338E-17 -3 0
-4.23077 6.661338E-17 -3 0
-4.153847 6.661338E-17 -3 0
-4.076923 6.661338E-17 -3 0
-4 6.661338E-17 -3 0
-3 4.440892E-17 -2 0
-3.076923 4.440892E-17 -2 0
-3 4.270088E-17 -1.923077 0
-3.153846 4.440892E-17 -2 0
-3.076923 4.270088E-17 -1.923077 0
-3 4.099285E-17 -1.846154 0
-3.230769 4.440892E-17 -2 0
-3.153846 4.270088E-17 -1.923077 0
-3.076923 4.099285E-17 -1.846154 0
-3 3.928481E-17 -1.769231 0
-3.307693 4.440892E-17 -2 0
-3.230769 4.270088E-17 -1.923077 0
-3.153846 4.099285E-17 -1.846154 0
-3.076923 3.928481E-17 -1.769231 0
-3 3.757678E-17 -1.692308 0
-3.384616 4.440892E-17 -2 0
-3.307693 4.270089E-17 -1.923077 0
-3.230769 4.099285E-17 -1.846154 0
-3.153846 3.928482E-17 -1.769231 0
-3.076923 3.757678E-17 -1.692308 0
-3 3.586875E-17 -1.615385 0
-3.461539 4.440892E-17 -2 0
-3.384616 4.270088E-17 -1.923077 0
-3.307693 4.099285E-17 -1.846154 0
-3.230769 3.928481E-17 -1.769231 0
-3.153846 3.757678E-17 -1.692308 0
-3.076923 3.586875E-17 -1.615385 0
-3 3.416071E-17 -1.538462 0
-3.538462 4.440892E-17 -2 0
-3.461539 4.270088E-17 -1.923077 0
-3.384616 4.099285E-17 -1.846154 0
-3.307693 3.928481E-17 -1.769231 0
-3.23077 3.757678E-17 -1.692308 0
-3.153846 3.586875E-17 -1.615385 0
-3.076923 3.416071E-17 -1.538462 0
-3 3.245267E-17 -1.461539 0
-3.615385 4.440892E-17 -2 0
-3.538462 4.270088E-17 -1.923077 0
-3.461539 4.099285E-17 -1.846154 0
-3.384615 3.928481E-17 -1.769231 0
-3.307693 3.757678E-17 -1.692308 0
-3.230769 3.586875E-17 -1.615385 0
-3.153846 3.416071E-17 -1.538462 0
-3.076923 3.245267E-17 -1.461538 0
-3 3.074464E-17 -1.384615 0
-3.692308 4.440892E-17 -2 0
-3.615385 4.270088E-17 -1.923077 0
-3.538462 4.099285E-17 -1.846154 0
-3.461539 3.928481E-17 -1.769231 0
-3.384616 3.757678E-17 -1.692308 0
-3.307693 3.586875E-17 -1.615385 0
-3.23077 3.416071E-17 -1.538462 0
-3.153846 3.245267E-17 -1.461538 0
-3.076923 3.074464E-17 -1.384615 0
-3 2.903661E-17 -1.307693 0
-3.769231 4.440892E-17 -2 0
-3.692308 4.270088E-17 -1.923077 0
-3.615385 4.099285E-17 -1.846154 0
-3.538462 3.928482E-17 -1.769231 0
-3.461539 3.757678E-17 -1.692308 0
-3.384615 3.586874E-17 -1.615385 0
-3.307693 3.416071E-17 -1.538461 0
-3.230769 3.245267E-17 -1.461539 0
-3.153846 3.074464E-17 -1.384615 0
-3.076923 2.90366E-17 -1.307692 0
-3 2.732857E-17 -1.230769 0
-3.846154 4.440892E-17 -2 0
-3.769231 4.270088E-17 -1.923077 0
-3.692308 4.099285E-17 -1.846154 0
-3.615385 3.928481E-17 -1.769231 0
-3.538462 3.757678E-17 -1.692308 0
-3.461539 3.586874E-17 -1.615385 0
-3.384616 3.416071E-17 -1.538461 0
-3.307693 3.245267E-17 -1.461539 0
-3.230769 3.074464E-17 -1.384615 0
-3.153846 2.90366E-17 -1.307693 0
-3.076923 2.732857E-17 -1.230769 0
-3 2.562054E-17 -1.153846 0
-3.923077 4.440892E-17 -2 0
-3.846154 4.270088E-17 -1.923077 0
-3.769231 4.099285E-17 -1.846154 0
-3.692308 3.928481E-17 -1.769231 0
-3.615385 3.757678E-17 -1.692308 0
-3.538462 3.586874E-17 -1.615385 0
-3.461539 3.416071E-17 -1.538462 0
-3.384616 3.245267E-17 -1.461539 0
-3.307693 3.074464E-17 -1.384615 0
-3.230769 2.90366E-17 -1.307692 0
-3.153846 2.732857E-17 -1.230769 0
-3.076923 2.562054E-17 -1.153846 0
-3 2.39125E-17 -1.076923 0
-4 4.440892E-17 -2 0
-3.923077 4.270088E-17 -1.923077 0
-3.846154 4.099285E-17 -1.846154 0
-3.769231 3.928481E-17 -1.769231 0
-3.692308 3.757678E-17 -1.692308 0
-3.615385 3.586874E-17 -1.615385 0
-3.538462 3.416071E-17 -1.538462 0
-3.461539 3.245267E-17 -1.461539 0
-3.384616 3.074464E-17 -1.384615 0
-3.307693 2.90366E-17 -1.307692 0
-3.230769 2.732857E-17 -1.230769 0
-3.153846 2.562054E-17 -1.153846 0
-3.076923 2.39125E-17 -1.076923 0
-3 2.220447E-17 -1 0
-4 6.661338E-17 -3 0
-4 6.490535E-17 -2.923077 0
-3.923077 6.490535E-17 -2.923077 0
-4 6.319731E-17 -2.846154 0
-3.923077 6.319731E-17 -2.846154 0
-3.846154 6.319731E-17 -2.846154 0
-4 6.148928E-17 -2.769231 0
-3.923077 6.148928E-17 -2.769231 0
-3.846154 6.148928E-17 -2.769231 0
-3.769231 6.148928E-17 -2.769231 0
-4 5.978124E-17 -2.692308 0
-3.923077 5.978124E-17 -2.692307 0
-3.846154 5.978124E-17 -2.692308 0
-3.769231 5.978124E-17 -2.692308 0
-3.692308 5.978124E-17 -2.692308 0
-4 5.807321E-17 -2.615385 0
-3.923077 5.807321E-17 -2.615385 0
-3.846154 5.807321E-17 -2.615385 0
-3.769231 5.807321E-17 -2.615385 0
-3.692308 5.807321E-17 -2.615385 0
-3.615385 5.807321E-17 -2.615385 0
-4 5.636517E-17 -2.538461 0
-3.923077 5.636517E-17 -2.538461 0
-3.846154 5.636517E-17 -2.538461 0
-3.769231 5.636517E-17 -2.538461 0
-3.692308 5.636517E-17 -2.538461 0
-3.615385 5.636517E-17 -2.538461 0
-3.538462 5.636517E-17 -2.538462 0
-4 5.465714E-17 -2.461538 0
-3.923078 5.465713E-17 -2.461538 0
-3.846154 5.465713E-17 -2.461538 0
-3.769231 5.465713E-17 -2.461538 0
-3.692308 5.465713E-17 -2.461538 0
-3.615385 5.465713E-17 -2.461539 0
-3.538462 5.465713E-17 -2.461538 0
-3.461539 5.465714E-17 -2.461538 0
-4 5.294909E-17 -2.384615 0
-3.923077 5.294909E-17 -2.384615 0
-3.846154 5.294909E-17 -2.384615 0
-3.769231 5.294909E-17 -2.384615 0
-3.692308 5.29491E-17 -2.384615 0
-3.615385 5.29491E-17 -2.384615 0
-3.538462 5.29491E-17 -2.384615 0
-3.461539 5.29491E-17 -2.384615 0
-3.384616 5.29491E-17 -2.384615 0
-4 5.124106E-17 -2.307692 0
-3.923077 5.124106E-17 -2.307692 0
-3.846154 5.124106E-17 -2.307692 0
-3.769231 5.124106E-17 -2.307692 0
-3.692308 5.124106E-17 -2.307692 0
-3.615385 5.124106E-17 -2.307692 0
-3.538462 5.124106E-17 -2.307692 0
-3.461539 5.124107E-17 -2.307692 0
-3.384616 5.124107E-17 -2.307692 0
-3.307692 5.124106E-17 -2.307692 0
-4 4.953302E-17 -2.230769 0
-3.923077 4.953302E-17 -2.230769 0
-3.846154 4.953302E-17 -2.230769 0
-3.769231 4.953303E-17 -2.230769 0
-3.692308 4.953302E-17 -2.230769 0
-3.615385 4.953302E-17 -2.230769 0
-3.538462 4.953302E-17 -2.230769 0
-3.461539 4.953302E-17 -2.230769 0
-3.384616 4.953303E-17 -2.230769 0
-3.307693 4.953302E-17 -2.230769 0
-3.230769 4.953302E-17 -2.230769 0
-4 4.782499E-17 -2.153846 0
-3.923078 4.782499E-17 -2.153846 0
-3.846154 4.782499E-17 -2.153846 0
-3.769231 4.782499E-17 -2.153846 0
-3.692308 4.782499E-17 -2.153846 0
-3.615385 4.782499E-17 -2.153846 0
-3.538462 4.782499E-17 -2.153846 0
-3.461539 4.782499E-17 -2.153846 0
-3.384616 4.782499E-17 -2.153846 0
-3.307693 4.782499E-17 -2.153846 0
-3.230769 4.782499E-17 -2.153846 0
-3.153846 4.782499E-17 -2.153846 0
-4 4.611695E-17 -2.076923 0
-3.923078 4.611695E-17 -2.076923 0
-3.846154 4.611695E-17 -2.076923 0
-3.769231 4.611695E-17 -2.076923 0
-3.692308 4.611695E-17 -2.076923 0
-3.615385 4.611695E-17 -2.076923 0
-3.538462 4.611695E-17 -2.076923 0
-3.461539 4.611695E-17 -2.076923 0
-3.384615 4.611696E-17 -2.076923 0
-3.307693 4.611695E-17 -2.076923 0
-3.230769 4.611695E-17 -2.076923 0
-3.153846 4.611695E-17 -2.076923 0
-3.076923 4.611695E-17 -2.076923 0
-4 4.440892E-17 -2 0
-3.923077 4.440892E-17 -2 0
-3.846154 4.440892E-17 -2 0
-3.769231 4.440892E-17 -2 0
-3.692308 4.440892E-17 -2 0
-3.615385 4.440892E-17 -2 0
-3.538462 4.440892E-17 -2 0
-3.461539 4.440892E-17 -2 0
-3.384616 4.440892E-17 -2 0
-3.307693 4.440892E-17 -2 0
-3.230769 4.440892E-17 -2 0
-3.153846 4.440892E-17 -2 0
-3.076923 4.440892E-17 -2 0
-3 4.440892E-17 -2 0
-2 2.220447E-17 -1 0
-2.076923 2.220447E-17 -1 0
-2 2.049643E-17 -0.9230772 0
-2.153846 2.220447E-17 -1 0
-2.076923 2.049643E-17 -0.9230771 0
-2 1.87884E-17 -0.846154 0
-2.230769 2.220447E-17 -1 0
-2.153846 2.049643E-17 -0.9230771 0
-2.076923 1.878839E-17 -0.846154 0
-2 1.708036E-17 -0.769231 0
-2.307692 2.220447E-17 -1 0
-2.230769 2.049643E-17 -0.9230772 0
-2.153846 1.878839E-17 -0.846154 0
-2.076923 1.708036E-17 -0.769231 0
-2 1.537232E-17 -0.6923078 0
-2.384615 2.220447E-17 -1 0
-2.307692 2.049643E-17 -0.9230771 0
-2.230769 1.87884E-17 -0.846154 0
-2.153846 1.708036E-17 -0.7692309 0
-2.076923 1.537232E-17 -0.6923078 0
-2 1.366429E-17 -0.6153847 0
-2.461538 2.220447E-17 -1 0
-2.384615 2.049643E-17 -0.9230771 0
-2.307692 1.87884E-17 -0.846154 0
-2.230769 1.708036E-17 -0.769231 0
-2.153846 1.537232E-17 -0.6923078 0
-2.076923 1.366429E-17 -0.6153848 0.01205584
-2 1.195625E-17 -0.5384616 0.02119883
-2.538462 2.220447E-17 -1 0
-2.461538 2.049643E-17 -0.9230772 0
-2.384615 1.878839E-17 -0.846154 0
-2.307692 1.708036E-17 -0.769231 0
-2.230769 1.537232E-17 -0.6923078 0.007855298
-2.153846 1.366429E-17 -0.6153848 0.04462714
-2.076923 1.195625E-17 -0.5384617 0.07183149
-2 1.024821E-17 -0.4615386 0.08656456
-2.615385 2.220447E-17 -1 0
-2.538461 2.049643E-17 -0.9230771 0
-2.461538 1.878839E-17 -0.846154 0
-2.384615 1.708036E-17 -0.769231 0
-2.307692 1.537232E-17 -0.6923078 0.03118931
-2.230769 1.366429E-17 -0.6153848 0.08534239
-2.153846 1.195625E-17 -0.5384617 0.1356039
-2.076923 1.024821E-17 -0.4615386 0.1765514
-2 8.540178E-18 -0.3846155 0.189889
-2.692308 2.220447E-17 -1 0
-2.615385 2.049643E-17 -0.9230771 0
-2.538461 1.878839E-17 -0.846154 0
-2.461538 1.708036E-17 -0.769231 0
-2.384615 1.537232E-17 -0.6923078 0.05151302
-2.307692 1.366429E-17 -0.6153847 0.1313098
-2.230769 1.195625E-17 -0.5384617 0.2178556
-2.153846 1.024821E-17 -0.4615385 0.298047
-2.076923 8.540179E-18 -0.3846154 0.3489727
-2 6.832143E-18 -0.3076923 0.3513176
-2.769231 2.220447E-17 -1 0
-2.692308 2.049643E-17 -0.9230772 0
-2.615385 1.878839E-17 -0.846154 0
-2.538462 1.708036E-17 -0.769231 0
-2.461538 1.537232E-17 -0.6923078 0.06811514
-2.384615 1.366429E-17 -0.6153848 0.1742918
-2.307692 1.195625E-17 -0.5384616 0.3063246
-2.230769 1.024821E-17 -0.4615386 0.4517658
-2.153846 8.540178E-18 -0.3846155 0.5734036
-2.076923 6.832143E-18 -0.3076923 0.6283617
-2 5.124107E-18 -0.2307693 0.5943069
-2.846154 2.220447E-17 -1 0
-2.769231 2.049643E-17 -0.9230772 0
-2.692308 1.87884E-17 -0.8461541 0
-2.615385 1.708036E-17 -0.7692309 0
-2.538461 1.537232E-17 -0.6923078 0.07406859
-2.461538 1.366429E-17 -0.6153848 0.2071725
-2.384615 1.195625E-17 -0.5384616 0.3917299
-2.307692 1.024822E-17 -0.4615386 0.6261031
-2.230769 8.540178E-18 -0.3846155 0.8618399
-2.153846 6.832143E-18 -0.3076923 1.024871
-2.076923 5.124107E-18 -0.2307693 1.053489
-2 3.416071E-18 -0.1538462 0.9379089
-2.923077 2.220447E-17 -1 0
-2.846154 2.049643E-17 -0.9230771 0
-2.769231 1.878839E-17 -0.846154 0
-2.692308 1.708036E-17 -0.769231 0
-2.615385 1.537232E-17 -0.6923078 0.06873968
-2.538461 1.366429E-17 -0.6153847 0.2238705
-2.461538 1.195625E-17 -0.5384617 0.4604087
-2.384615 1.024821E-17 -0.4615386 0.7990544
-2.307692 8.540179E-18 -0.3846155 1.192662
-2.230769 6.832143E-18 -0.3076924 1.539484
-2.153846 5.124108E-18 -0.2307693 1.717862
-2.076923 3.416071E-18 -0.1538462 1.660903
-2 1.708036E-18 -0.07692309 1.388963
-3 2.220447E-17 -1 0
-2.923077 2.049643E-17 -0.9230772 0
-2.846154 1.87884E-17 -0.846154 0
-2.769231 1.708036E-17 -0.769231 0
-2.692308 1.537232E-17 -0.6923079 0.04023879
-2.615385 1.366429E-17 -0.6153847 0.2222806
-2.538462 1.195625E-17 -0.5384617 0.4973912
-2.461538 1.024821E-17 -0.4615386 0.938482
-2.384615 8.540178E-18 -0.3846155 1.521004
-2.307692 6.832143E-18 -0.3076923 2.128811
-2.230769 5.124107E-18 -0.2307693 2.578996
-2.153846 3.416071E-18 -0.1538462 2.706975
-2.076923 1.708036E-18 -0.07692309 2.459737
-2 0 0 1.935058
-3 4.440892E-17 -2 0
-3 4.270088E-17 -1.923077 0
-2.923077 4.270088E-17 -1.923077 0
-3 4.099285E-17 -1.846154 0
-2.923077 4.099285E-17 -1.846154 0
-2.846154 4.099285E-17 -1.846154 0
-3 3.928481E-17 -1.769231 0
-2.923077 3.928481E-17 -1.769231 0
-2.846154 3.928481E-17 -1.769231 0
-2.769231 3.928481E-17 -1.769231 0
-3 3.757678E-17 -1.692308 0
-2.923077 3.757678E-17 -1.692308 0
-2.846154 3.757678E-17 -1.692308 0
-2.769231 3.757678E-17 -1.692308 0
-2.692308 3.757678E-17 -1.692308 0
-3 3.586875E-17 -1.615385 0
-2.923077 3.586875E-17 -1.615385 0
-2.846154 3.586875E-17 -1.615385 0
-2.769231 3.586875E-17 -1.615385 0
-2.692308 3.586875E-17 -1.615385 0
-2.615385 3.586875E-17 -1.615385 0
-3 3.416071E-17 -1.538462 0
-2.923077 3.416071E-17 -1.538462 0
-2.846154 3.416071E-17 -1.538461 0
-2.769231 3.416071E-17 -1.538462 0
-2.692307 3.416071E-17 -1.538462 0
-2.615385 3.416071E-17 -1.538462 0
-2.538462 3.416071E-17 -1.538462 0
-3 3.245267E-17 -1.461539 0
-2.923077 3.245267E-17 -1.461539 0
-2.846154 3.245267E-17 -1.461538 0
-2.769231 3.245267E-17 -1.461539 0
-2.692308 3.245267E-17 -1.461539 0
-2.615385 3.245267E-17 -1.461538 0
-2.538461 3.245267E-17 -1.461539 0
-2.461538 3.245267E-17 -1.461539 0
-3 3.074464E-17 -1.384615 0
-2.923077 3.074464E-17 -1.384615 0
-2.846154 3.074464E-17 -1.384615 0
-2.769231 3.074464E-17 -1.384615 0
-2.692307 3.074464E-17 -1.384615 0
-2.615385 3.074464E-17 -1.384616 0
-2.538461 3.074464E-17 -1.384615 0
-2.461538 3.074464E-17 -1.384615 0
-2.384615 3.074464E-17 -1.384615 0
-3 2.903661E-17 -1.307693 0
-2.923077 2.903661E-17 -1.307692 0
-2.846154 2.90366E-17 -1.307692 0
-2.769231 2.903661E-17 -1.307692 0
-2.692307 2.903661E-17 -1.307692 0
-2.615385 2.903661E-17 -1.307692 0
-2.538461 2.90366E-17 -1.307692 0
-2.461538 2.903661E-17 -1.307692 0
-2.384615 2.903661E-17 -1.307692 0
-2.307692 2.903661E-17 -1.307693 0
-3 2.732857E-17 -1.230769 0
-2.923077 2.732857E-17 -1.230769 0
-2.846154 2.732857E-17 -1.230769 0
-2.769231 2.732857E-17 -1.230769 0
-2.692307 2.732857E-17 -1.230769 0
-2.615385 2.732857E-17 -1.230769 0
-2.538461 2.732857E-17 -1.230769 0
-2.461538 2.732857E-17 -1.230769 0
-2.384615 2.732857E-17 -1.230769 0
-2.307692 2.732857E-17 -1.230769 0
-2.230769 2.732857E-17 -1.230769 0
-3 2.562054E-17 -1.153846 0
-2.923077 2.562054E-17 -1.153846 0
-2.846154 2.562054E-17 -1.153846 0
-2.769231 2.562053E-17 -1.153846 0
-2.692308 2.562054E-17 -1.153846 0
-2.615385 2.562054E-17 -1.153846 0
-2.538461 2.562053E-17 -1.153846 0
-2.461538 2.562054E-17 -1.153846 0
-2.384615 2.562054E-17 -1.153846 0
-2.307692 2.562053E-17 -1.153846 0
-2.230769 2.562053E-17 -1.153846 0
-2.153846 2.562054E-17 -1.153846 0
-3 2.39125E-17 -1.076923 0
-2.923077 2.39125E-17 -1.076923 0
-2.846154 2.39125E-17 -1.076923 0
-2.769231 2.39125E-17 -1.076923 0
-2.692307 2.39125E-17 -1.076923 0
-2.615385 2.39125E-17 -1.076923 0
