ply
format ascii 1.0
element vertex 1589
property float x
property float y
property float z
property float value
end_header
-1.2 6.772361E-17 -3.05 0.4610947
-1.15 6.772361E-17 -3.05 0.09870104
-1.1 6.772361E-17 -3.05 0.007474096
-1.05 6.772361E-17 -3.05 0
-2 6.661338E-17 -3 53.55248
-1.95 6.661338E-17 -3 74.06327
-1.9 6.661338E-17 -3 95.32315
-1.85 6.661338E-17 -3 113.9454
-1.8 6.661338E-17 -3 126.1891
-1.75 6.661338E-17 -3 129.1303
-1.7 6.661338E-17 -3 121.7891
-1.65 6.661338E-17 -3 105.6225
-1.6 6.661338E-17 -3 84.06132
-1.55 6.661338E-17 -3 61.28931
-1.5 6.661338E-17 -3 40.87881
-1.45 6.661338E-17 -3 24.89733
-1.4 6.661338E-17 -3 13.83149
-1.35 6.661338E-17 -3 6.998775
-1.3 6.661338E-17 -3 3.208717
-1.25 6.661338E-17 -3 1.301088
-1.2 6.661338E-17 -3 0.457257
-1.15 6.661338E-17 -3 0.1017759
-1.1 6.661338E-17 -3 0.01153493
-1.05 6.661338E-17 -3 0
-1 6.661338E-17 -3 0
-1 6.661338E-17 -3 0
-1.05 6.661338E-17 -3 0
-1 6.550316E-17 -2.95 0
-1.1 6.661338E-17 -3 0.01153497
-1.05 6.550316E-17 -2.95 0
-1 6.439294E-17 -2.9 0
-1.15 6.661338E-17 -3 0.1017759
-1.1 6.550316E-17 -2.95 0.01158669
-1.05 6.439294E-17 -2.9 0
-1 6.328272E-17 -2.85 0
-1.2 6.661338E-17 -3 0.4572571
-1.15 6.550316E-17 -2.95 0.09454098
-1.1 6.439294E-17 -2.9 0.008474404
-1.05 6.328271E-17 -2.85 0
-1 6.217249E-17 -2.8 0
-1.25 6.661338E-17 -3 1.301088
-1.2 6.550316E-17 -2.95 0.4329399
-1.15 6.439294E-17 -2.9 0.0898259
-1.1 6.328271E-17 -2.85 0
-1.05 6.217249E-17 -2.8 0
-1 6.106227E-17 -2.75 0
-1.3 6.661338E-17 -3 3.208725
-1.25 6.550316E-17 -2.95 1.225345
-1.2 6.439294E-17 -2.9 0.3880849
-1.15 6.328272E-17 -2.85 0.07983246
-1.1 6.217249E-17 -2.8 0
-1.05 6.106227E-17 -2.75 0
-1 5.995205E-17 -2.7 0
-1.35 6.661338E-17 -3 6.99879
-1.3 6.550316E-17 -2.95 3.034817
-1.25 6.439294E-17 -2.9 1.119569
-1.2 6.328272E-17 -2.85 0.3294857
-1.15 6.21725E-17 -2.8 0.06750429
-1.1 6.106227E-17 -2.75 0
-1.05 5.995205E-17 -2.7 0
-1 5.884182E-17 -2.65 0
-1.4 6.661338E-17 -3 13.83149
-1.35 6.550316E-17 -2.95 6.590186
-1.3 6.439293E-17 -2.9 2.758863
-1.25 6.328271E-17 -2.85 0.9805431
-1.2 6.217249E-17 -2.8 0.2654333
-1.15 6.106227E-17 -2.75 0.05248572
-1.1 5.995205E-17 -2.7 0
-1.05 5.884182E-17 -2.65 0
-1 5.77316E-17 -2.6 0
-1.45 6.661338E-17 -3 24.89733
-1.4 6.550316E-17 -2.95 12.99033
-1.35 6.439294E-17 -2.9 5.974933
-1.3 6.328271E-17 -2.85 2.406181
-1.25 6.217249E-17 -2.8 0.8207341
-1.2 6.106227E-17 -2.75 0.2000815
-1.15 5.995205E-17 -2.7 0.03808846
-1.1 5.884182E-17 -2.65 0
-1.05 5.77316E-17 -2.6 0
-1 5.662137E-17 -2.55 0
-1.5 6.661338E-17 -3 40.87881
-1.45 6.550316E-17 -2.95 23.29526
-1.4 6.439294E-17 -2.9 11.73505
-1.35 6.328272E-17 -2.85 5.210478
-1.3 6.217249E-17 -2.8 2.005097
-1.25 6.106227E-17 -2.75 0.6567284
-1.2 5.995205E-17 -2.7 0.1399058
-1.15 5.884182E-17 -2.65 0.02219511
-1.1 5.77316E-17 -2.6 0
-1.05 5.662137E-17 -2.55 0
-1 5.551115E-17 -2.5 0
-1.55 6.661338E-17 -3 61.28931
-1.5 6.550316E-17 -2.95 38.09969
-1.45 6.439294E-17 -2.9 20.99483
-1.4 6.328272E-17 -2.85 10.20274
-1.35 6.21725E-17 -2.8 4.36223
-1.3 6.106227E-17 -2.75 1.619858
-1.25 5.995205E-17 -2.7 0.4969945
-1.2 5.884182E-17 -2.65 0.1025732
-1.15 5.77316E-17 -2.6 0
-1.1 5.662137E-17 -2.55 0
-1.05 5.551115E-17 -2.5 0
-1 5.440093E-17 -2.45 0
-1.6 6.661338E-17 -3 84.06132
-1.55 6.550316E-17 -2.95 56.92988
-1.5 6.439294E-17 -2.9 34.21857
-1.45 6.328272E-17 -2.85 18.20184
-1.4 6.217249E-17 -2.8 8.524486
-1.35 6.106227E-17 -2.75 3.503949
-1.3 5.995205E-17 -2.7 1.25348
-1.25 5.884182E-17 -2.65 0.3288144
-1.2 5.77316E-17 -2.6 0.06992073
-1.15 5.662137E-17 -2.55 0
-1.1 5.551115E-17 -2.5 0
-1.05 5.440093E-17 -2.45 0
-1 5.32907E-17 -2.4 0
-1.65 6.661338E-17 -3 105.6225
-1.6 6.550316E-17 -2.95 77.81488
-1.55 6.439294E-17 -2.9 50.97793
-1.5 6.328272E-17 -2.85 29.58775
-1.45 6.21725E-17 -2.8 15.17052
-1.4 6.106227E-17 -2.75 6.84068
-1.35 5.995205E-17 -2.7 2.692148
-1.3 5.884182E-17 -2.65 0.9085363
-1.25 5.77316E-17 -2.6 0.2188142
-1.2 5.662137E-17 -2.55 0.04069233
-1.15 5.551115E-17 -2.5 0
-1.1 5.440093E-17 -2.45 0
-1.05 5.32907E-17 -2.4 0
-1 5.218048E-17 -2.35 0
-1.7 6.661338E-17 -3 121.7891
-1.65 6.550316E-17 -2.95 97.4628
-1.6 6.439293E-17 -2.9 69.47166
-1.55 6.328271E-17 -2.85 43.94585
-1.5 6.217249E-17 -2.8 24.60069
-1.45 6.106227E-17 -2.75 12.15134
-1.4 5.995205E-17 -2.7 5.267532
-1.35 5.884182E-17 -2.65 1.983127
-1.3 5.77316E-17 -2.6 0.6285202
-1.25 5.662137E-17 -2.55 0.1350378
-1.2 5.551115E-17 -2.5 0.01582149
-1.15 5.440093E-17 -2.45 0
-1.1 5.32907E-17 -2.4 0
-1.05 5.218048E-17 -2.35 0
-1 5.107026E-17 -2.3 0
-1.75 6.661338E-17 -3 129.1303
-1.7 6.550316E-17 -2.95 112.0608
-1.65 6.439294E-17 -2.9 86.77727
-1.6 6.328272E-17 -2.85 59.7491
-1.55 6.217249E-17 -2.8 36.45409
-1.5 6.106227E-17 -2.75 19.65604
-1.45 5.995205E-17 -2.7 9.344864
-1.4 5.884182E-17 -2.65 3.886032
-1.35 5.77316E-17 -2.6 1.407508
-1.3 5.662137E-17 -2.55 0.386949
-1.25 5.551115E-17 -2.5 0.08402577
-1.2 5.440093E-17 -2.45 0
-1.15 5.32907E-17 -2.4 0
-1.1 5.218048E-17 -2.35 0
-1.05 5.107026E-17 -2.3 0
-1 4.996003E-17 -2.25 0
-1.8 6.661338E-17 -3 126.1891
-1.75 6.550316E-17 -2.95 118.532
-1.7 6.439294E-17 -2.9 99.54217
-1.65 6.328272E-17 -2.85 74.46049
-1.6 6.217249E-17 -2.8 49.44488
-1.55 6.106227E-17 -2.75 29.06249
-1.5 5.995205E-17 -2.7 15.08489
-1.45 5.884182E-17 -2.65 6.886086
-1.4 5.77316E-17 -2.6 2.740753
-1.35 5.662137E-17 -2.55 0.9531262
-1.3 5.551115E-17 -2.5 0.2292425
-1.25 5.440093E-17 -2.45 0.04461423
-1.2 5.329071E-17 -2.4 0
-1.15 5.218048E-17 -2.35 0
-1.1 5.107026E-17 -2.3 0
-1.05 4.996003E-17 -2.25 0
-1 4.884981E-17 -2.2 0
-1.85 6.661338E-17 -3 113.9454
-1.8 6.550316E-17 -2.95 115.6266
-1.75 6.439294E-17 -2.9 105.0983
-1.7 6.328272E-17 -2.85 85.25087
-1.65 6.217249E-17 -2.8 61.50993
-1.6 6.106227E-17 -2.75 39.3494
-1.55 5.995204E-17 -2.7 22.26034
-1.5 5.884182E-17 -2.65 11.11441
-1.45 5.77316E-17 -2.6 4.865307
-1.4 5.662137E-17 -2.55 1.847441
-1.35 5.551115E-17 -2.5 0.5899456
-1.3 5.440093E-17 -2.45 0.1287107
-1.25 5.32907E-17 -2.4 0.01121047
-1.2 5.218048E-17 -2.35 0
-1.15 5.107026E-17 -2.3 0
-1.1 4.996003E-17 -2.25 0
-1.05 4.884981E-17 -2.2 0
-1 4.773959E-17 -2.15 0
-1.9 6.661338E-17 -3 95.32315
-1.85 6.550316E-17 -2.95 104.3055
-1.8 6.439294E-17 -2.9 102.4034
-1.75 6.328272E-17 -2.85 89.88647
-1.7 6.217249E-17 -2.8 70.31413
-1.65 6.106227E-17 -2.75 48.86447
-1.6 5.995204E-17 -2.7 30.08075
-1.55 5.884182E-17 -2.65 16.37242
-1.5 5.77316E-17 -2.6 7.855226
-1.45 5.662137E-17 -2.55 3.290656
-1.4 5.551115E-17 -2.5 1.200513
-1.35 5.440093E-17 -2.45 0.3241677
-1.3 5.329071E-17 -2.4 0.06969492
-1.25 5.218048E-17 -2.35 0
-1.2 5.107026E-17 -2.3 0
-1.15 4.996003E-17 -2.25 0
-1.1 4.884981E-17 -2.2 0
-1.05 4.773959E-17 -2.15 0
-1 4.662936E-17 -2.1 0
-1.95 6.661338E-17 -3 74.06327
-1.9 6.550316E-17 -2.95 87.25928
-1.85 6.439294E-17 -2.9 92.34772
-1.8 6.328272E-17 -2.85 87.52316
-1.75 6.217249E-17 -2.8 74.0636
-1.7 6.106227E-17 -2.75 55.79907
-1.65 5.995205E-17 -2.7 37.30338
-1.6 5.884182E-17 -2.65 22.08856
-1.55 5.77316E-17 -2.6 11.55385
-1.5 5.662137E-17 -2.55 5.321098
-1.45 5.551115E-17 -2.5 2.109603
-1.4 5.440093E-17 -2.45 0.7409894
-1.35 5.32907E-17 -2.4 0.1666333
-1.3 5.218048E-17 -2.35 0.02735149
-1.25 5.107026E-17 -2.3 0
-1.2 4.996003E-17 -2.25 0
-1.15 4.884981E-17 -2.2 0
-1.1 4.773959E-17 -2.15 0
-1.05 4.662936E-17 -2.1 0
-1 4.551914E-17 -2.05 0
-2 6.661338E-17 -3 53.55248
-1.95 6.550316E-17 -2.95 67.8769
-1.9 6.439294E-17 -2.9 77.31058
-1.85 6.328272E-17 -2.85 78.94518
-1.8 6.217249E-17 -2.8 72.09638
-1.75 6.106227E-17 -2.75 58.73333
-1.7 5.995205E-17 -2.7 42.55706
-1.65 5.884182E-17 -2.65 27.3548
-1.6 5.77316E-17 -2.6 15.5679
-1.55 5.662137E-17 -2.55 7.819634
-1.5 5.551115E-17 -2.5 3.440691
-1.45 5.440093E-17 -2.45 1.308175
-1.4 5.32907E-17 -2.4 0.3890587
-1.35 5.218048E-17 -2.35 0.08745655
-1.3 5.107026E-17 -2.3 0
-1.25 4.996003E-17 -2.25 0
-1.2 4.884981E-17 -2.2 0
-1.15 4.773959E-17 -2.15 0
-1.1 4.662936E-17 -2.1 0
-1.05 4.551914E-17 -2.05 0
-1 4.440892E-17 -2 0
-2 1.110223E-16 -5 0
-2 1.099121E-16 -4.95 0
-1.95 1.099121E-16 -4.95 0
-2 1.088019E-16 -4.9 0
-1.95 1.088019E-16 -4.9 0
-1.9 1.088019E-16 -4.9 0
-2 1.076916E-16 -4.85 0
-1.95 1.076916E-16 -4.85 0
-1.9 1.076916E-16 -4.85 0
-1.85 1.076916E-16 -4.85 0
-2 1.065814E-16 -4.8 0
-1.95 1.065814E-16 -4.8 0
-1.9 1.065814E-16 -4.8 0
-1.85 1.065814E-16 -4.8 0
-1.8 1.065814E-16 -4.8 0
-2 1.054712E-16 -4.75 0
-1.95 1.054712E-16 -4.75 0
-1.9 1.054712E-16 -4.75 0
-1.85 1.054712E-16 -4.75 0
-1.8 1.054712E-16 -4.75 0
-1.75 1.054712E-16 -4.75 0
-2 1.04361E-16 -4.7 0
-1.95 1.04361E-16 -4.7 0
-1.9 1.04361E-16 -4.7 0
-1.85 1.04361E-16 -4.7 0
-1.8 1.04361E-16 -4.7 0
-1.75 1.04361E-16 -4.7 0
-1.7 1.04361E-16 -4.7 0
-2 1.032507E-16 -4.65 0
-1.95 1.032507E-16 -4.65 0
-1.9 1.032507E-16 -4.650001 0
-1.85 1.032507E-16 -4.650001 0
-1.8 1.032507E-16 -4.650001 0
-1.75 1.032507E-16 -4.65 0
-1.7 1.032507E-16 -4.650001 0
-1.65 1.032507E-16 -4.65 0
-2 1.021405E-16 -4.6 0
-1.95 1.021405E-16 -4.6 0
-1.9 1.021405E-16 -4.6 0
-1.85 1.021405E-16 -4.6 0
-1.8 1.021405E-16 -4.6 0
-1.75 1.021405E-16 -4.6 0
-1.7 1.021405E-16 -4.6 0
-1.65 1.021405E-16 -4.6 0
-1.6 1.021405E-16 -4.6 0
-2 1.010303E-16 -4.55 0
-1.95 1.010303E-16 -4.55 0
-1.9 1.010303E-16 -4.55 0
-1.85 1.010303E-16 -4.55 0
-1.8 1.010303E-16 -4.55 0
-1.75 1.010303E-16 -4.55 0
-1.7 1.010303E-16 -4.55 0
-1.65 1.010303E-16 -4.55 0
-1.6 1.010303E-16 -4.55 0
-1.55 1.010303E-16 -4.55 0
-2 9.992008E-17 -4.5 0
-1.95 9.992008E-17 -4.5 0
-1.9 9.992007E-17 -4.5 0
-1.85 9.992008E-17 -4.5 0
-1.8 9.992008E-17 -4.5 0
-1.75 9.992008E-17 -4.5 0
-1.7 9.992008E-17 -4.5 0
-1.65 9.992008E-17 -4.5 0
-1.6 9.992008E-17 -4.5 0
-1.55 9.992008E-17 -4.5 0
-1.5 9.992008E-17 -4.5 0
-2 9.880985E-17 -4.45 0
-1.95 9.880985E-17 -4.45 0
-1.9 9.880985E-17 -4.45 0
-1.85 9.880985E-17 -4.45 0
-1.8 9.880985E-17 -4.45 0
-1.75 9.880985E-17 -4.45 0
-1.7 9.880985E-17 -4.45 0
-1.65 9.880985E-17 -4.45 0
-1.6 9.880985E-17 -4.45 0
-1.55 9.880985E-17 -4.45 0
-1.5 9.880985E-17 -4.45 0
-1.45 9.880985E-17 -4.45 0
-2 9.769963E-17 -4.400001 0
-1.95 9.769963E-17 -4.400001 0
-1.9 9.769963E-17 -4.400001 0
-1.85 9.769963E-17 -4.400001 0
-1.8 9.769963E-17 -4.400001 0
-1.75 9.769963E-17 -4.4 0
-1.7 9.769963E-17 -4.400001 0
-1.65 9.769964E-17 -4.4 0
-1.6 9.769963E-17 -4.400001 0
-1.55 9.769963E-17 -4.4 0
-1.5 9.769963E-17 -4.4 0
-1.45 9.769963E-17 -4.4 0
-1.4 9.769963E-17 -4.400001 0
-2 9.65894E-17 -4.35 0
-1.95 9.65894E-17 -4.35 0
-1.9 9.658941E-17 -4.35 0
-1.85 9.65894E-17 -4.35 0
-1.8 9.65894E-17 -4.35 0
-1.75 9.65894E-17 -4.35 0
-1.7 9.658941E-17 -4.35 0
-1.65 9.65894E-17 -4.35 0
-1.6 9.65894E-17 -4.35 0
-1.55 9.658941E-17 -4.35 0
-1.5 9.65894E-17 -4.35 0
-1.45 9.658941E-17 -4.35 0
-1.4 9.65894E-17 -4.35 0
-1.35 9.65894E-17 -4.35 0
-2 9.547919E-17 -4.3 0
-1.95 9.547918E-17 -4.3 0.006540739
-1.9 9.547918E-17 -4.3 0.01980534
-1.85 9.547918E-17 -4.3 0.02253719
-1.8 9.547919E-17 -4.3 0.02802231
-1.75 9.547918E-17 -4.3 0.02831407
-1.7 9.547918E-17 -4.3 0.02501834
-1.65 9.547919E-17 -4.3 0.017464
-1.6 9.547918E-17 -4.3 0.003662696
-1.55 9.547918E-17 -4.3 0
-1.5 9.547919E-17 -4.3 0
-1.45 9.547919E-17 -4.3 0
-1.4 9.547919E-17 -4.3 0
-1.35 9.547919E-17 -4.300001 0
-1.3 9.547919E-17 -4.3 0
-2 9.436896E-17 -4.25 0.04812817
-1.95 9.436896E-17 -4.25 0.07292357
-1.9 9.436896E-17 -4.25 0.08983986
-1.85 9.436896E-17 -4.25 0.1004369
-1.8 9.436897E-17 -4.25 0.09796697
-1.75 9.436896E-17 -4.25 0.08379558
-1.7 9.436896E-17 -4.25 0.06568838
-1.65 9.436896E-17 -4.25 0.05287011
-1.6 9.436897E-17 -4.25 0.03496585
-1.55 9.436896E-17 -4.25 0.01671357
-1.5 9.436896E-17 -4.25 0
-1.45 9.436897E-17 -4.25 0
-1.4 9.436896E-17 -4.25 0
-1.35 9.436897E-17 -4.25 0
-1.3 9.436897E-17 -4.25 0
-1.25 9.436896E-17 -4.25 0
-2 9.325874E-17 -4.200001 0.1295052
-1.95 9.325874E-17 -4.200001 0.1722719
-1.9 9.325874E-17 -4.2 0.2072437
-1.85 9.325874E-17 -4.2 0.2282015
-1.8 9.325874E-17 -4.200001 0.228689
-1.75 9.325874E-17 -4.2 0.2076707
-1.7 9.325874E-17 -4.200001 0.169129
-1.65 9.325874E-17 -4.2 0.1143736
-1.6 9.325874E-17 -4.200001 0.08274934
-1.55 9.325874E-17 -4.2 0.05168055
-1.5 9.325874E-17 -4.2 0.02452318
-1.45 9.325874E-17 -4.2 0
-1.4 9.325874E-17 -4.2 0
-1.35 9.325874E-17 -4.2 0
-1.3 9.325874E-17 -4.2 0
-1.25 9.325874E-17 -4.2 0
-1.2 9.325874E-17 -4.200001 0
-2 9.214852E-17 -4.150001 0.2705964
-1.95 9.214852E-17 -4.150001 0.352787
-1.9 9.214852E-17 -4.150001 0.4210252
-1.85 9.214852E-17 -4.150001 0.4588691
-1.8 9.214852E-17 -4.150001 0.4610388
-1.75 9.214852E-17 -4.150001 0.4232207
-1.7 9.214852E-17 -4.15 0.3535387
-1.65 9.214852E-17 -4.150001 0.2654308
-1.6 9.214852E-17 -4.150001 0.1659693
-1.55 9.214852E-17 -4.150001 0.1090532
-1.5 9.214852E-17 -4.150001 0.06127688
-1.45 9.214852E-17 -4.150001 0.02588263
-1.4 9.214852E-17 -4.150001 0
-1.35 9.214852E-17 -4.150001 0
-1.3 9.214852E-17 -4.15 0
-1.25 9.214851E-17 -4.150001 0
-1.2 9.214852E-17 -4.150001 0
-1.15 9.214852E-17 -4.150001 0
-2 9.103829E-17 -4.1 0.515446
-1.95 9.103829E-17 -4.1 0.6659453
-1.9 9.103829E-17 -4.1 0.7893823
-1.85 9.103829E-17 -4.1 0.8606071
-1.8 9.103829E-17 -4.1 0.8632423
-1.75 9.103829E-17 -4.1 0.7966756
-1.7 9.103829E-17 -4.1 0.6718093
-1.65 9.103829E-17 -4.1 0.5157769
-1.6 9.103829E-17 -4.1 0.3531503
-1.55 9.103829E-17 -4.1 0.2064512
-1.5 9.103829E-17 -4.1 0.121963
-1.45 9.10383E-17 -4.1 0.06017924
-1.4 9.103829E-17 -4.1 0.01954374
-1.35 9.10383E-17 -4.1 0
-1.3 9.10383E-17 -4.1 0
-1.25 9.103829E-17 -4.1 0
-1.2 9.103829E-17 -4.1 0
-1.15 9.103829E-17 -4.1 0
-1.1 9.103829E-17 -4.1 0
-2 8.992807E-17 -4.05 0.922735
-1.95 8.992807E-17 -4.05 1.186791
-1.9 8.992807E-17 -4.050001 1.402738
-1.85 8.992807E-17 -4.050001 1.529956
-1.8 8.992807E-17 -4.050001 1.535173
-1.75 8.992807E-17 -4.05 1.418244
-1.7 8.992807E-17 -4.05 1.201521
-1.65 8.992807E-17 -4.05 0.9300432
-1.6 8.992807E-17 -4.050001 0.6527306
-1.55 8.992807E-17 -4.05 0.4026297
-1.5 8.992807E-17 -4.05 0.2206524
-1.45 8.992807E-17 -4.05 0.1166044
-1.4 8.992807E-17 -4.05 0.04866277
-1.35 8.992807E-17 -4.05 0.008670108
-1.3 8.992807E-17 -4.05 0
-1.25 8.992807E-17 -4.050001 0
-1.2 8.992807E-17 -4.050001 0
-1.15 8.992807E-17 -4.050001 0
-1.1 8.992807E-17 -4.050001 0
-1.05 8.992807E-17 -4.05 0
-2 8.881785E-17 -4 1.568783
-1.95 8.881785E-17 -4 2.014878
-1.9 8.881784E-17 -4 2.381097
-1.85 8.881785E-17 -4 2.594471
-1.8 8.881785E-17 -4 2.606373
-1.75 8.881785E-17 -4 2.409217
-1.7 8.881785E-17 -4 2.047547
-1.65 8.881785E-17 -4 1.592821
-1.6 8.881785E-17 -4 1.129027
-1.55 8.881785E-17 -4 0.7190396
-1.5 8.881785E-17 -4 0.3830619
-1.45 8.881785E-17 -4 0.2040443
-1.4 8.881785E-17 -4 0.094237
-1.35 8.881785E-17 -4 0.03033891
-1.3 8.881785E-17 -4 0
-1.25 8.881785E-17 -4 0
-1.2 8.881785E-17 -4 0
-1.15 8.881785E-17 -4 0
-1.1 8.881785E-17 -4 0
-1.05 8.881785E-17 -4 0
-1 8.881785E-17 -4 0
-1 8.881785E-17 -4 0
-1.05 8.881785E-17 -4 0
-1 8.770763E-17 -3.950001 0
-1.1 8.881785E-17 -4 0
-1.05 8.770762E-17 -3.950001 0
-1 8.65974E-17 -3.9 0
-1.15 8.881785E-17 -4 0
-1.1 8.770762E-17 -3.950001 0
-1.05 8.65974E-17 -3.900001 0
-1 8.548718E-17 -3.85 0
-1.2 8.881785E-17 -4 0
-1.15 8.770763E-17 -3.950001 0
-1.1 8.65974E-17 -3.900001 0
-1.05 8.548717E-17 -3.850001 0
-1 8.437696E-17 -3.800001 0
-1.25 8.881785E-17 -4 0
-1.2 8.770762E-17 -3.950001 0
-1.15 8.65974E-17 -3.900001 0
-1.1 8.548718E-17 -3.850001 0
-1.05 8.437696E-17 -3.8 0
-1 8.326673E-17 -3.75 0
-1.3 8.881785E-17 -4 0
-1.25 8.770763E-17 -3.95 0
-1.2 8.659741E-17 -3.9 0
-1.15 8.548718E-17 -3.85 0
-1.1 8.437696E-17 -3.8 0
-1.05 8.326673E-17 -3.75 0
-1 8.215651E-17 -3.7 0
-1.35 8.881785E-17 -4 0.03033898
-1.3 8.770763E-17 -3.95 0.009974173
-1.25 8.659741E-17 -3.9 0
-1.2 8.548718E-17 -3.85 0
-1.15 8.437696E-17 -3.8 0
-1.1 8.326674E-17 -3.75 0
-1.05 8.215651E-17 -3.7 0
-1 8.104628E-17 -3.65 0
-1.4 8.881785E-17 -4 0.094237
-1.35 8.770763E-17 -3.95 0.06166715
-1.3 8.659741E-17 -3.9 0.02726965
-1.25 8.548718E-17 -3.85 0
-1.2 8.437695E-17 -3.8 0
-1.15 8.326673E-17 -3.75 0
-1.1 8.215651E-17 -3.7 0
-1.05 8.104628E-17 -3.65 0
-1 7.993606E-17 -3.6 0
-1.45 8.881785E-17 -4 0.2040443
-1.4 8.770763E-17 -3.950001 0.1607477
-1.35 8.659741E-17 -3.9 0.1076417
-1.3 8.548718E-17 -3.85 0.0518076
-1.25 8.437696E-17 -3.8 0.01478355
-1.2 8.326673E-17 -3.75 0
-1.15 8.215651E-17 -3.7 0
-1.1 8.104629E-17 -3.65 0
-1.05 7.993606E-17 -3.6 0
-1 7.882584E-17 -3.55 0
-1.5 8.881785E-17 -4 0.3830619
-1.45 8.770763E-17 -3.950001 0.3357643
-1.4 8.659741E-17 -3.900001 0.2599901
-1.35 8.548718E-17 -3.85 0.1714431
-1.3 8.437696E-17 -3.800001 0.08982339
-1.25 8.326674E-17 -3.75 0.02568836
-1.2 8.215651E-17 -3.7 0
-1.15 8.104628E-17 -3.65 0
-1.1 7.993606E-17 -3.6 0
-1.05 7.882585E-17 -3.55 0
-1 7.771562E-17 -3.5 0
-1.55 8.881785E-17 -4 0.7190396
-1.5 8.770763E-17 -3.95 0.6893446
-1.45 8.659741E-17 -3.900001 0.5548618
-1.4 8.548718E-17 -3.85 0.3957932
-1.35 8.437696E-17 -3.8 0.2574449
-1.3 8.326673E-17 -3.75 0.1408597
-1.25 8.21565E-17 -3.7 0.03868311
-1.2 8.104629E-17 -3.65 0
-1.15 7.993606E-17 -3.6 0
-1.1 7.882584E-17 -3.55 0
-1.05 7.771562E-17 -3.5 0
-1 7.66054E-17 -3.45 0
-1.6 8.881785E-17 -4 1.129027
-1.55 8.770763E-17 -3.950001 1.204029
-1.5 8.659741E-17 -3.900001 1.127913
-1.45 8.548718E-17 -3.85 0.9265904
-1.4 8.437696E-17 -3.8 0.6247153
-1.35 8.326673E-17 -3.75 0.3643107
-1.3 8.21565E-17 -3.7 0.198733
-1.25 8.104628E-17 -3.65 0.07608359
-1.2 7.993607E-17 -3.6 0.005629381
-1.15 7.882584E-17 -3.55 0
-1.1 7.771561E-17 -3.5 0
-1.05 7.660539E-17 -3.450001 0
-1 7.549517E-17 -3.4 0
-1.65 8.881785E-17 -4 1.592821
-1.6 8.770763E-17 -3.95 1.859452
-1.55 8.659741E-17 -3.9 1.909471
-1.5 8.548718E-17 -3.85 1.732303
-1.45 8.437696E-17 -3.8 1.385526
-1.4 8.326673E-17 -3.75 0.9472271
-1.35 8.215651E-17 -3.7 0.5703372
-1.3 8.104629E-17 -3.65 0.2848767
-1.25 7.993606E-17 -3.6 0.1197598
-1.2 7.882585E-17 -3.55 0.01207282
-1.15 7.771562E-17 -3.5 0
-1.1 7.660539E-17 -3.45 0
-1.05 7.549517E-17 -3.4 0
-1 7.438495E-17 -3.35 0
-1.7 8.881785E-17 -4 2.047547
-1.65 8.770763E-17 -3.95 2.605674
-1.6 8.65974E-17 -3.9 2.930274
-1.55 8.548718E-17 -3.85 2.911172
-1.5 8.437696E-17 -3.8 2.56112
-1.45 8.326673E-17 -3.75 1.997669
-1.4 8.21565E-17 -3.7 1.394063
-1.35 8.104629E-17 -3.65 0.8365643
-1.3 7.993606E-17 -3.6 0.428996
-1.25 7.882584E-17 -3.55 0.170432
-1.2 7.771562E-17 -3.5 0.0266001
-1.15 7.66054E-17 -3.45 0
-1.1 7.549517E-17 -3.4 0
-1.05 7.438495E-17 -3.35 0
-1 7.327472E-17 -3.3 0
-1.75 8.881785E-17 -4 2.409217
-1.7 8.770763E-17 -3.95 3.337408
-1.65 8.659741E-17 -3.9 4.093635
-1.6 8.548718E-17 -3.85 4.44929
-1.55 8.437696E-17 -3.8 4.294059
-1.5 8.326673E-17 -3.75 3.723262
-1.45 8.21565E-17 -3.7 2.863173
-1.4 8.104628E-17 -3.650001 1.971569
-1.35 7.993606E-17 -3.6 1.195135
-1.3 7.882584E-17 -3.55 0.6327918
-1.25 7.771562E-17 -3.5 0.2677006
-1.2 7.66054E-17 -3.45 0.05149868
-1.15 7.549517E-17 -3.4 0
-1.1 7.438495E-17 -3.35 0
-1.05 7.327472E-17 -3.3 0
-1 7.21645E-17 -3.25 0
-1.8 8.881785E-17 -4 2.606373
-1.75 8.770762E-17 -3.950001 3.923477
-1.7 8.659741E-17 -3.9 5.235401
-1.65 8.548718E-17 -3.85 6.211169
-1.6 8.437696E-17 -3.8 6.552208
-1.55 8.326673E-17 -3.75 6.17655
-1.5 8.215651E-17 -3.7 5.188392
-1.45 8.104628E-17 -3.65 3.907095
-1.4 7.993606E-17 -3.6 2.647185
-1.35 7.882584E-17 -3.55 1.595467
-1.3 7.771562E-17 -3.5 0.8709868
-1.25 7.660539E-17 -3.45 0.3882692
-1.2 7.549517E-17 -3.4 0.1142853
-1.15 7.438494E-17 -3.35 0
-1.1 7.327473E-17 -3.3 0
-1.05 7.21645E-17 -3.25 0
-1 7.105428E-17 -3.2 0
-1.85 8.881785E-17 -4 2.594471
-1.8 8.770763E-17 -3.950001 4.238359
-1.75 8.65974E-17 -3.900001 6.141963
-1.7 8.548718E-17 -3.85 7.925611
-1.65 8.437696E-17 -3.8 9.098457
-1.6 8.326673E-17 -3.75 9.344528
-1.55 8.21565E-17 -3.7 8.577601
-1.5 8.104628E-17 -3.65 7.053239
-1.45 7.993606E-17 -3.6 5.223371
-1.4 7.882584E-17 -3.55 3.481102
-1.35 7.771562E-17 -3.5 2.08164
-1.3 7.66054E-17 -3.45 1.127512
-1.25 7.549517E-17 -3.4 0.5311962
-1.2 7.438495E-17 -3.35 0.1688071
-1.15 7.327472E-17 -3.3 0.01830733
-1.1 7.21645E-17 -3.25 0
-1.05 7.105427E-17 -3.2 0
-1 6.994406E-17 -3.15 0
-1.9 8.881784E-17 -4 2.381097
-1.85 8.770763E-17 -3.950001 4.216746
-1.8 8.659741E-17 -3.900001 6.62611
-1.75 8.548718E-17 -3.850001 9.279371
-1.7 8.437696E-17 -3.8 11.57092
-1.65 8.326673E-17 -3.75 12.93715
-1.6 8.21565E-17 -3.7 12.88704
-1.55 8.104629E-17 -3.65 11.53268
-1.5 7.993606E-17 -3.6 9.303969
-1.45 7.882584E-17 -3.55 6.78987
-1.4 7.771562E-17 -3.5 4.493777
-1.35 7.66054E-17 -3.45 2.658878
-1.3 7.549517E-17 -3.4 1.423954
-1.25 7.438495E-17 -3.35 0.6776673
-1.2 7.327472E-17 -3.3 0.2239863
-1.15 7.21645E-17 -3.25 0.03555189
-1.1 7.105427E-17 -3.2 0
-1.05 6.994405E-17 -3.15 0
-1 6.883383E-17 -3.1 0
-1.95 8.881785E-17 -4 2.014878
-1.9 8.770762E-17 -3.95 3.867206
-1.85 8.659741E-17 -3.900001 6.582716
-1.8 8.548718E-17 -3.850001 9.986477
-1.75 8.437696E-17 -3.800001 13.51019
-1.7 8.326673E-17 -3.75 16.37642
-1.65 8.215651E-17 -3.7 17.71781
-1.6 8.104628E-17 -3.65 17.2326
-1.55 7.993606E-17 -3.6 15.11674
-1.5 7.882584E-17 -3.55 11.99772
-1.45 7.771562E-17 -3.5 8.637304
-1.4 7.66054E-17 -3.45 5.646837
-1.35 7.549517E-17 -3.4 3.330366
-1.3 7.438494E-17 -3.35 1.75606
-1.25 7.327472E-17 -3.3 0.8182301
-1.2 7.21645E-17 -3.25 0.2820145
-1.15 7.105428E-17 -3.2 0.05531901
-1.1 6.994406E-17 -3.15 0
-1.05 6.883383E-17 -3.1 0
-1 6.772361E-17 -3.05 0
-2 8.881785E-17 -4 1.568783
-1.95 8.770763E-17 -3.950001 3.270517
-1.9 8.65974E-17 -3.9 6.029516
-1.85 8.548718E-17 -3.850001 9.894896
-1.8 8.437696E-17 -3.800001 14.51794
-1.75 8.326673E-17 -3.75 19.04613
-1.7 8.215651E-17 -3.7 22.33849
-1.65 8.104628E-17 -3.65 23.57376
-1.6 7.993606E-17 -3.6 22.45081
-1.55 7.882584E-17 -3.55 19.35578
-1.5 7.771562E-17 -3.5 15.14219
-1.45 7.66054E-17 -3.45 10.76371
-1.4 7.549517E-17 -3.4 6.947925
-1.35 7.438495E-17 -3.35 4.046539
-1.3 7.327472E-17 -3.3 2.11286
-1.25 7.21645E-17 -3.25 0.9599791
-1.2 7.105428E-17 -3.2 0.3434474
-1.15 6.994406E-17 -3.15 0.07890575
-1.1 6.883383E-17 -3.1 0
-1.05 6.772361E-17 -3.05 0
-1 6.661338E-17 -3 0
-1 1.110223E-16 -5 0
-1.05 1.110223E-16 -5 0
-1 1.099121E-16 -4.95 0
-1.1 1.110223E-16 -5 0
-1.05 1.099121E-16 -4.95 0
-1 1.088019E-16 -4.9 0
-1.15 1.110223E-16 -5 0
-1.1 1.099121E-16 -4.95 0
-1.05 1.088019E-16 -4.9 0
-1 1.076916E-16 -4.85 0
-1.2 1.110223E-16 -5 0
-1.15 1.099121E-16 -4.95 0
-1.1 1.088019E-16 -4.9 0
-1.05 1.076916E-16 -4.85 0
-1 1.065814E-16 -4.8 0
-1.25 1.110223E-16 -5 0
-1.2 1.099121E-16 -4.95 0
-1.15 1.088019E-16 -4.9 0
-1.1 1.076916E-16 -4.85 0
-1.05 1.065814E-16 -4.8 0
-1 1.054712E-16 -4.75 0
-1.3 1.110223E-16 -5 0
-1.25 1.099121E-16 -4.95 0
-1.2 1.088019E-16 -4.9 0
-1.15 1.076916E-16 -4.85 0
-1.1 1.065814E-16 -4.8 0
-1.05 1.054712E-16 -4.75 0
-1 1.04361E-16 -4.7 0
-1.35 1.110223E-16 -5 0
-1.3 1.099121E-16 -4.95 0
-1.25 1.088019E-16 -4.9 0
-1.2 1.076916E-16 -4.85 0
-1.15 1.065814E-16 -4.8 0
-1.1 1.054712E-16 -4.75 0
-1.05 1.04361E-16 -4.7 0
-1 1.032507E-16 -4.65 0
-1.4 1.110223E-16 -5 0
-1.35 1.099121E-16 -4.95 0
-1.3 1.088019E-16 -4.9 0
-1.25 1.076916E-16 -4.85 0
-1.2 1.065814E-16 -4.8 0
-1.15 1.054712E-16 -4.75 0
-1.1 1.04361E-16 -4.7 0
-1.05 1.032507E-16 -4.65 0
-1 1.021405E-16 -4.6 0
-1.45 1.110223E-16 -5 0
-1.4 1.099121E-16 -4.95 0
-1.35 1.088019E-16 -4.9 0
-1.3 1.076916E-16 -4.85 0
-1.25 1.065814E-16 -4.8 0
-1.2 1.054712E-16 -4.75 0
-1.15 1.04361E-16 -4.7 0
-1.1 1.032507E-16 -4.65 0
-1.05 1.021405E-16 -4.6 0
-1 1.010303E-16 -4.55 0
-1.5 1.110223E-16 -5 0
-1.45 1.099121E-16 -4.95 0
-1.4 1.088019E-16 -4.9 0
-1.35 1.076916E-16 -4.85 0
-1.3 1.065814E-16 -4.8 0
-1.25 1.054712E-16 -4.75 0
-1.2 1.04361E-16 -4.7 0
-1.15 1.032507E-16 -4.65 0
-1.1 1.021405E-16 -4.6 0
-1.05 1.010303E-16 -4.55 0
-1 9.992008E-17 -4.5 0
-1.55 1.110223E-16 -5 0
-1.5 1.099121E-16 -4.95 0
-1.45 1.088019E-16 -4.9 0
-1.4 1.076916E-16 -4.85 0
-1.35 1.065814E-16 -4.8 0
-1.3 1.054712E-16 -4.75 0
-1.25 1.04361E-16 -4.7 0
-1.2 1.032507E-16 -4.65 0
-1.15 1.021405E-16 -4.6 0
-1.1 1.010303E-16 -4.55 0
-1.05 9.992008E-17 -4.5 0
-1 9.880985E-17 -4.45 0
-1.6 1.110223E-16 -5 0
-1.55 1.099121E-16 -4.95 0
-1.5 1.088019E-16 -4.9 0
-1.45 1.076916E-16 -4.85 0
-1.4 1.065814E-16 -4.8 0
-1.35 1.054712E-16 -4.75 0
-1.3 1.04361E-16 -4.7 0
-1.25 1.032507E-16 -4.65 0
-1.2 1.021405E-16 -4.6 0
-1.15 1.010303E-16 -4.55 0
-1.1 9.992008E-17 -4.5 0
-1.05 9.880985E-17 -4.45 0
-1 9.769963E-17 -4.400001 0
-1.65 1.110223E-16 -5 0
-1.6 1.099121E-16 -4.95 0
-1.55 1.088019E-16 -4.9 0
-1.5 1.076916E-16 -4.85 0
-1.45 1.065814E-16 -4.8 0
-1.4 1.054712E-16 -4.75 0
-1.35 1.04361E-16 -4.7 0
-1.3 1.032507E-16 -4.65 0
-1.25 1.021405E-16 -4.6 0
-1.2 1.010303E-16 -4.55 0
-1.15 9.992007E-17 -4.5 0
-1.1 9.880986E-17 -4.45 0
-1.05 9.769963E-17 -4.400001 0
-1 9.65894E-17 -4.35 0
-1.7 1.110223E-16 -5 0
-1.65 1.099121E-16 -4.95 0
-1.6 1.088019E-16 -4.9 0
-1.55 1.076916E-16 -4.85 0
-1.5 1.065814E-16 -4.8 0
-1.45 1.054712E-16 -4.75 0
-1.4 1.04361E-16 -4.7 0
-1.35 1.032507E-16 -4.65 0
-1.3 1.021405E-16 -4.6 0
-1.25 1.010303E-16 -4.55 0
-1.2 9.992008E-17 -4.5 0
-1.15 9.880985E-17 -4.45 0
-1.1 9.769963E-17 -4.4 0
-1.05 9.658941E-17 -4.35 0
-1 9.547919E-17 -4.3 0
-1.75 1.110223E-16 -5 0
-1.7 1.099121E-16 -4.95 0
-1.65 1.088019E-16 -4.9 0
-1.6 1.076916E-16 -4.85 0
-1.55 1.065814E-16 -4.8 0
-1.5 1.054712E-16 -4.75 0
-1.45 1.04361E-16 -4.7 0
-1.4 1.032507E-16 -4.65 0
-1.35 1.021405E-16 -4.6 0
-1.3 1.010303E-16 -4.55 0
-1.25 9.992008E-17 -4.5 0
-1.2 9.880985E-17 -4.45 0
-1.15 9.769963E-17 -4.4 0
-1.1 9.658941E-17 -4.35 0
-1.05 9.547919E-17 -4.3 0
-1 9.436896E-17 -4.25 0
-1.8 1.110223E-16 -5 0
-1.75 1.099121E-16 -4.95 0
-1.7 1.088019E-16 -4.9 0
-1.65 1.076916E-16 -4.85 0
-1.6 1.065814E-16 -4.8 0
-1.55 1.054712E-16 -4.75 0
-1.5 1.04361E-16 -4.7 0
-1.45 1.032507E-16 -4.65 0
-1.4 1.021405E-16 -4.6 0
-1.35 1.010303E-16 -4.55 0
-1.3 9.992008E-17 -4.5 0
-1.25 9.880985E-17 -4.45 0
-1.2 9.769963E-17 -4.4 0
-1.15 9.658941E-17 -4.35 0
-1.1 9.547919E-17 -4.3 0
-1.05 9.436896E-17 -4.25 0
-1 9.325874E-17 -4.200001 0
-1.85 1.110223E-16 -5 0
-1.8 1.099121E-16 -4.95 0
-1.75 1.088019E-16 -4.9 0
-1.7 1.076916E-16 -4.85 0
-1.65 1.065814E-16 -4.8 0
-1.6 1.054712E-16 -4.75 0
-1.55 1.04361E-16 -4.7 0
-1.5 1.032507E-16 -4.65 0
-1.45 1.021405E-16 -4.6 0
-1.4 1.010303E-16 -4.55 0
-1.35 9.992008E-17 -4.5 0
-1.3 9.880985E-17 -4.45 0
-1.25 9.769963E-17 -4.4 0
-1.2 9.658942E-17 -4.35 0
-1.15 9.547918E-17 -4.3 0
-1.1 9.436896E-17 -4.25 0
-1.05 9.325874E-17 -4.2 0
-1 9.214852E-17 -4.150001 0
-1.9 1.110223E-16 -5 0
-1.85 1.099121E-16 -4.95 0
-1.8 1.088019E-16 -4.9 0
-1.75 1.076916E-16 -4.85 0
-1.7 1.065814E-16 -4.8 0
-1.65 1.054712E-16 -4.75 0
-1.6 1.04361E-16 -4.7 0
-1.55 1.032507E-16 -4.65 0
-1.5 1.021405E-16 -4.6 0
-1.45 1.010303E-16 -4.55 0
-1.4 9.992008E-17 -4.5 0
-1.35 9.880986E-17 -4.45 0
-1.3 9.769963E-17 -4.4 0
-1.25 9.658942E-17 -4.35 0
-1.2 9.547919E-17 -4.3 0
-1.15 9.436896E-17 -4.25 0
-1.1 9.325874E-17 -4.2 0
-1.05 9.214852E-17 -4.150001 0
-1 9.103829E-17 -4.1 0
-1.95 1.110223E-16 -5 0
-1.9 1.099121E-16 -4.95 0
-1.85 1.088019E-16 -4.9 0
-1.8 1.076916E-16 -4.85 0
-1.75 1.065814E-16 -4.8 0
-1.7 1.054712E-16 -4.75 0
-1.65 1.04361E-16 -4.7 0
-1.6 1.032507E-16 -4.65 0
-1.55 1.021405E-16 -4.6 0
-1.5 1.010303E-16 -4.55 0
-1.45 9.992008E-17 -4.5 0
-1.4 9.880985E-17 -4.45 0
-1.35 9.769963E-17 -4.4 0
-1.3 9.658941E-17 -4.35 0
-1.25 9.547919E-17 -4.3 0
-1.2 9.436896E-17 -4.25 0
-1.15 9.325874E-17 -4.2 0
-1.1 9.214852E-17 -4.150001 0
-1.05 9.103829E-17 -4.1 0
-1 8.992807E-17 -4.05 0
-2 1.110223E-16 -5 0
-1.95 1.099121E-16 -4.95 0
-1.9 1.088019E-16 -4.9 0
-1.85 1.076916E-16 -4.85 0
-1.8 1.065814E-16 -4.8 0
-1.75 1.054712E-16 -4.75 0
-1.7 1.04361E-16 -4.7 0
-1.65 1.032507E-16 -4.65 0
-1.6 1.021405E-16 -4.6 0
-1.55 1.010303E-16 -4.55 0
-1.5 9.992008E-17 -4.5 0
-1.45 9.880985E-17 -4.45 0
-1.4 9.769963E-17 -4.4 0
-1.35 9.658941E-17 -4.35 0
-1.3 9.547919E-17 -4.3 0
-1.25 9.436896E-17 -4.25 0
-1.2 9.325874E-17 -4.2 0
-1.15 9.214852E-17 -4.150001 0
-1.1 9.103829E-17 -4.1 0
-1.05 8.992807E-17 -4.050001 0
-1 8.881785E-17 -4 0
-1 4.440892E-17 -2 0
-1 4.329869E-17 -1.95 0
-0.9500002 4.329869E-17 -1.95 0
-1 4.218847E-17 -1.9 0
-0.9500002 4.218847E-17 -1.9 0
-0.9000002 4.218847E-17 -1.9 0
-1 4.107825E-17 -1.85 0
-0.9500002 4.107825E-17 -1.85 0
-0.9000002 4.107825E-17 -1.85 0
-0.8500001 4.107825E-17 -1.85 0
-1 3.996803E-17 -1.8 0
-0.9500002 3.996803E-17 -1.8 0
-0.9000002 3.996803E-17 -1.8 0
-0.8500002 3.996803E-17 -1.8 0
-0.8000002 3.996803E-17 -1.8 0
-1 3.885781E-17 -1.75 0
-0.9500002 3.885781E-17 -1.75 0
-0.9000002 3.885781E-17 -1.75 0
-0.8500002 3.885781E-17 -1.75 0
-0.8000002 3.885781E-17 -1.75 0
-0.7500002 3.885781E-17 -1.75 0
-1 3.774758E-17 -1.7 0
-0.9500002 3.774758E-17 -1.7 0
-0.9000002 3.774758E-17 -1.7 0
-0.8500002 3.774758E-17 -1.7 0
-0.8000002 3.774758E-17 -1.7 0
-0.7500002 3.774758E-17 -1.7 0
-0.7000002 3.774758E-17 -1.7 0
-1 3.663736E-17 -1.65 0
-0.9500002 3.663736E-17 -1.65 0
-0.9000002 3.663736E-17 -1.65 0
-0.8500002 3.663736E-17 -1.65 0
-0.8000002 3.663736E-17 -1.65 0
-0.7500002 3.663736E-17 -1.65 0
-0.7000002 3.663736E-17 -1.65 0
-0.6500002 3.663736E-17 -1.65 0
-1 3.552714E-17 -1.6 0
-0.9500002 3.552714E-17 -1.6 0
-0.9000002 3.552714E-17 -1.6 0
-0.8500001 3.552714E-17 -1.6 0
-0.8000002 3.552714E-17 -1.6 0
-0.7500001 3.552714E-17 -1.6 0
-0.7000001 3.552714E-17 -1.6 0
-0.6500002 3.552714E-17 -1.6 0
-0.6000001 3.552714E-17 -1.6 0
-1 3.441691E-17 -1.55 0
-0.9500002 3.441691E-17 -1.55 0
-0.9000002 3.441692E-17 -1.55 0
-0.8500001 3.441691E-17 -1.55 0
-0.8000002 3.441692E-17 -1.55 0
-0.7500002 3.441691E-17 -1.55 0
-0.7000002 3.441692E-17 -1.55 0
-0.6500002 3.441692E-17 -1.55 0
-0.6000001 3.441691E-17 -1.55 0
-0.5500001 3.441691E-17 -1.55 0
-1 3.330669E-17 -1.5 0
-0.9500002 3.330669E-17 -1.5 0
-0.9000002 3.330669E-17 -1.5 0
-0.8500002 3.330669E-17 -1.5 0
-0.8000002 3.330669E-17 -1.5 0
-0.7500002 3.330669E-17 -1.5 0
-0.7000002 3.330669E-17 -1.5 0
-0.6500002 3.330669E-17 -1.5 0
-0.6000001 3.330669E-17 -1.5 0
-0.5500001 3.330669E-17 -1.5 0
-0.5000001 3.330669E-17 -1.5 0
-1 3.219647E-17 -1.45 0
-0.9500002 3.219647E-17 -1.45 0
-0.9000002 3.219647E-17 -1.45 0
-0.8500002 3.219647E-17 -1.45 0
-0.8000002 3.219647E-17 -1.45 0
-0.7500002 3.219647E-17 -1.45 0
-0.7000002 3.219647E-17 -1.45 0
-0.6500002 3.219647E-17 -1.45 0
-0.6000001 3.219647E-17 -1.45 0
-0.5500001 3.219647E-17 -1.45 0
-0.5000001 3.219647E-17 -1.45 0
-0.4500001 3.219647E-17 -1.45 0
-1 3.108625E-17 -1.4 0
-0.9500002 3.108625E-17 -1.4 0
-0.9000002 3.108625E-17 -1.4 0
-0.8500002 3.108625E-17 -1.4 0
-0.8000002 3.108625E-17 -1.4 0
-0.7500002 3.108625E-17 -1.4 0
-0.7000002 3.108625E-17 -1.4 0
-0.6500002 3.108625E-17 -1.4 0
-0.6000001 3.108625E-17 -1.4 0
-0.5500001 3.108624E-17 -1.4 0
-0.5000001 3.108625E-17 -1.4 0
-0.4500001 3.108625E-17 -1.4 0
-0.4000001 3.108625E-17 -1.4 0
-1 2.997602E-17 -1.35 0
-0.9500002 2.997603E-17 -1.35 0
-0.9000002 2.997603E-17 -1.35 0
-0.8500002 2.997602E-17 -1.35 0
-0.8000002 2.997602E-17 -1.35 0
-0.7500002 2.997602E-17 -1.35 0
-0.7000002 2.997602E-17 -1.35 0
-0.6500002 2.997603E-17 -1.35 0
-0.6000001 2.997602E-17 -1.35 0
-0.5500001 2.997602E-17 -1.35 0
-0.5000001 2.997602E-17 -1.35 0
-0.4500001 2.997602E-17 -1.35 0
-0.4000001 2.997602E-17 -1.35 0
-0.3500001 2.997602E-17 -1.35 0
-1 2.88658E-17 -1.3 0
-0.9500002 2.88658E-17 -1.3 0
-0.9000002 2.88658E-17 -1.3 0
-0.8500001 2.88658E-17 -1.3 0
-0.8000002 2.88658E-17 -1.3 0
-0.7500002 2.88658E-17 -1.3 0
-0.7000002 2.88658E-17 -1.3 0
-0.6500002 2.88658E-17 -1.3 0
-0.6000001 2.88658E-17 -1.3 0
-0.5500001 2.88658E-17 -1.3 0
-0.5000001 2.88658E-17 -1.3 0
-0.4500001 2.88658E-17 -1.3 0
-0.4000001 2.88658E-17 -1.3 0
-0.3500001 2.88658E-17 -1.3 0
-0.3000001 2.88658E-17 -1.3 0
-1 2.775558E-17 -1.25 0
-0.9500002 2.775558E-17 -1.25 0
-0.9000002 2.775558E-17 -1.25 0
-0.8500002 2.775558E-17 -1.25 0
-0.8000002 2.775558E-17 -1.25 0
-0.7500002 2.775558E-17 -1.25 0
-0.7000002 2.775558E-17 -1.25 0
-0.6500002 2.775558E-17 -1.25 0
-0.6000001 2.775558E-17 -1.25 0
-0.5500001 2.775558E-17 -1.25 0
-0.5000001 2.775558E-17 -1.25 0
-0.4500001 2.775558E-17 -1.25 0
-0.4000001 2.775558E-17 -1.25 0
-0.3500001 2.775558E-17 -1.25 0
-0.3000001 2.775558E-17 -1.25 0
-0.2500001 2.775558E-17 -1.25 0
-1 2.664536E-17 -1.2 0
-0.9500002 2.664536E-17 -1.2 0
-0.9000002 2.664536E-17 -1.2 0
-0.8500002 2.664536E-17 -1.2 0
-0.8000002 2.664536E-17 -1.2 0
-0.7500002 2.664536E-17 -1.2 0
-0.7000002 2.664536E-17 -1.2 0
-0.6500002 2.664536E-17 -1.2 0
-0.6000001 2.664536E-17 -1.2 0
-0.5500002 2.664536E-17 -1.2 0
-0.5000001 2.664536E-17 -1.2 0
-0.4500001 2.664536E-17 -1.2 0
-0.4000001 2.664536E-17 -1.2 0
-0.3500001 2.664536E-17 -1.2 0
-0.3000001 2.664536E-17 -1.2 0
-0.2500001 2.664536E-17 -1.2 0
-0.2 2.664536E-17 -1.2 0
-1 2.553513E-17 -1.15 0
-0.9500002 2.553513E-17 -1.15 0
-0.9000002 2.553513E-17 -1.15 0
-0.8500002 2.553513E-17 -1.15 0
-0.8000002 2.553513E-17 -1.15 0
-0.7500002 2.553513E-17 -1.15 0
-0.7000001 2.553513E-17 -1.15 0
-0.6500002 2.553513E-17 -1.15 0
-0.6000001 2.553513E-17 -1.15 0
-0.5500001 2.553513E-17 -1.15 0
-0.5000001 2.553513E-17 -1.15 0
-0.4500001 2.553513E-17 -1.15 0
-0.4000001 2.553513E-17 -1.15 0
-0.3500001 2.553513E-17 -1.15 0
-0.3000001 2.553513E-17 -1.15 0
-0.2500001 2.553513E-17 -1.15 0
-0.2 2.553513E-17 -1.15 0
-0.15 2.553513E-17 -1.15 0
-1 2.442491E-17 -1.1 0
-0.9500002 2.442491E-17 -1.1 0
-0.9000002 2.442491E-17 -1.1 0
-0.8500002 2.442491E-17 -1.1 0
-0.8000002 2.442491E-17 -1.1 0
-0.7500002 2.442491E-17 -1.1 0
-0.7000001 2.442491E-17 -1.1 0
-0.6500002 2.442491E-17 -1.1 0
-0.6000001 2.442491E-17 -1.1 0
-0.5500002 2.442491E-17 -1.1 0
-0.5000001 2.442491E-17 -1.1 0
-0.4500001 2.442491E-17 -1.1 0
-0.4000001 2.442491E-17 -1.1 0
-0.3500001 2.442491E-17 -1.1 0
-0.3000001 2.442491E-17 -1.1 0
-0.2500001 2.442491E-17 -1.1 0
-0.2 2.442491E-17 -1.1 0
-0.15 2.442491E-17 -1.1 0
-0.1 2.442491E-17 -1.1 0
-1 2.331469E-17 -1.05 0
-0.9500002 2.331469E-17 -1.05 0
-0.9000002 2.331469E-17 -1.05 0
-0.8500002 2.331469E-17 -1.05 0
-0.8000002 2.331469E-17 -1.05 0
-0.7500002 2.331469E-17 -1.05 0
-0.7000002 2.331469E-17 -1.05 0
-0.6500002 2.331469E-17 -1.05 0
-0.6000001 2.331469E-17 -1.05 0
-0.5500001 2.331469E-17 -1.05 0
-0.5000001 2.331469E-17 -1.05 0
-0.4500001 2.331469E-17 -1.05 0
-0.4000001 2.331469E-17 -1.05 0
-0.3500001 2.331469E-17 -1.05 0
-0.3000001 2.331469E-17 -1.05 0
-0.2500001 2.331469E-17 -1.05 0
-0.2 2.331469E-17 -1.05 0
-0.15 2.331469E-17 -1.05 0
-0.1 2.331469E-17 -1.05 0
-0.05000002 2.331469E-17 -1.05 0.0112524
-1 2.220447E-17 -1 0
-0.9500002 2.220447E-17 -1 0
-0.9000002 2.220447E-17 -1 0
-0.8500002 2.220447E-17 -1 0
-0.8000002 2.220447E-17 -1 0
-0.7500002 2.220447E-17 -1 0
-0.7000002 2.220447E-17 -1 0
-0.6500002 2.220447E-17 -1 0
-0.6000001 2.220447E-17 -1 0
-0.5500001 2.220447E-17 -1 0
-0.5000001 2.220447E-17 -1 0
-0.4500001 2.220447E-17 -1 0
-0.4000001 2.220447E-17 -1 0
-0.3500001 2.220447E-17 -1 0
-0.3000001 2.220447E-17 -1 0
-0.2500001 2.220447E-17 -1 0
-0.2 2.220447E-17 -1 0
-0.15 2.220447E-17 -1 0
-0.1 2.220447E-17 -1 0
-0.05000002 2.220447E-17 -1 0
0 2.220447E-17 -1 0.03434898
0 2.220447E-17 -1 0.03434898
-0.05000002 2.220447E-17 -1 0
-1.117587E-08 2.109424E-17 -0.9500002 0
-0.1 2.220447E-17 -1 0
-0.05000003 2.109424E-17 -0.9500002 0
-2.235175E-08 1.998402E-17 -0.9000002 0
-0.15 2.220447E-17 -1 0
-0.1 2.109424E-17 -0.9500002 0
-0.04999999 1.998402E-17 -0.9000002 0
2.980233E-08 1.88738E-17 -0.8500001 0
-0.2 2.220447E-17 -1 0
-0.15 2.109424E-17 -0.9500002 0
-0.1 1.998402E-17 -0.9000002 0
-0.04999999 1.88738E-17 -0.8500002 0
1.490116E-08 1.776357E-17 -0.8000002 0
-0.2500001 2.220447E-17 -1 0
-0.2 2.109424E-17 -0.9500002 0
-0.15 1.998402E-17 -0.9000002 0
-0.1 1.88738E-17 -0.8500002 0
-0.05000001 1.776357E-17 -0.8000002 0
0 1.665335E-17 -0.7500002 0
-0.3000001 2.220447E-17 -1 0
-0.2500001 2.109424E-17 -0.9500002 0
-0.2000001 1.998402E-17 -0.9000002 0
-0.15 1.88738E-17 -0.8500002 0
-0.1 1.776357E-17 -0.8000002 0
-0.05000002 1.665335E-17 -0.7500002 0
0 1.554313E-17 -0.7000002 0
-0.3500001 2.220447E-17 -1 0
-0.3000001 2.109424E-17 -0.9500002 0
-0.2500001 1.998402E-17 -0.9000002 0
-0.2000001 1.88738E-17 -0.8500002 0
-0.1500001 1.776357E-17 -0.8000002 0
-0.1 1.665335E-17 -0.7500002 0
-0.05000002 1.554313E-17 -0.7000002 0
-2.980233E-08 1.44329E-17 -0.6500002 0
-0.4000001 2.220447E-17 -1 0
-0.3500001 2.109424E-17 -0.9500002 0
-0.3 1.998402E-17 -0.9000002 0
-0.25 1.88738E-17 -0.8500001 0
-0.2 1.776357E-17 -0.8000002 0
-0.15 1.665335E-17 -0.7500001 0
-0.09999999 1.554313E-17 -0.7000001 0
-0.04999999 1.44329E-17 -0.6500002 0
2.980233E-08 1.332268E-17 -0.6000001 0
-0.4500001 2.220447E-17 -1 0
-0.4000001 2.109424E-17 -0.9500002 0
-0.3500001 1.998402E-17 -0.9000002 0
-0.3 1.88738E-17 -0.8500001 0
-0.25 1.776357E-17 -0.8000002 0
-0.2 1.665335E-17 -0.7500002 0
-0.15 1.554313E-17 -0.7000002 0
-0.1 1.44329E-17 -0.6500002 0
-0.04999999 1.332268E-17 -0.6000001 0
0 1.221246E-17 -0.5500001 0
-0.5000001 2.220447E-17 -1 0
-0.4500001 2.109424E-17 -0.9500002 0
-0.4000001 1.998402E-17 -0.9000002 0
-0.3500001 1.88738E-17 -0.8500002 0
-0.3000001 1.776357E-17 -0.8000002 0
-0.2500001 1.665335E-17 -0.7500002 0
-0.2 1.554313E-17 -0.7000002 0
-0.15 1.44329E-17 -0.6500002 0
-0.1 1.332268E-17 -0.6000001 0
-0.05000002 1.221246E-17 -0.5500001 0
0 1.110223E-17 -0.5000001 0
-0.5500001 2.220447E-17 -1 0
-0.5000001 2.109424E-17 -0.9500002 0
-0.4500001 1.998402E-17 -0.9000002 0
-0.4000001 1.88738E-17 -0.8500002 0
-0.3500001 1.776357E-17 -0.8000002 0
-0.3000001 1.665335E-17 -0.7500002 0
-0.2500001 1.554313E-17 -0.7000002 0
-0.2000001 1.44329E-17 -0.6500002 0
-0.15 1.332268E-17 -0.6000001 0
-0.1 1.221246E-17 -0.5500001 0
-0.05000002 1.110223E-17 -0.5000001 0
0 9.992009E-18 -0.4500001 0
-0.6000001 2.220447E-17 -1 0
-0.5500001 2.109424E-17 -0.9500002 0
-0.5000001 1.998402E-17 -0.9000002 0
-0.4500001 1.88738E-17 -0.8500002 0
-0.4000001 1.776357E-17 -0.8000002 0
-0.3500001 1.665335E-17 -0.7500002 0
-0.3 1.554313E-17 -0.7000002 0
-0.2500001 1.44329E-17 -0.6500002 0
-0.2 1.332268E-17 -0.6000001 0
-0.15 1.221246E-17 -0.5500001 0
-0.1 1.110223E-17 -0.5000001 0
-0.04999999 9.992009E-18 -0.4500001 0
2.980233E-08 8.881786E-18 -0.4000001 0
-0.6500002 2.220447E-17 -1 0
-0.6000001 2.109424E-17 -0.9500002 0
-0.5500001 1.998402E-17 -0.9000002 0
-0.5000001 1.88738E-17 -0.8500002 0
-0.4500001 1.776357E-17 -0.8000002 0
-0.4000001 1.665335E-17 -0.7500002 0
-0.3500001 1.554313E-17 -0.7000002 0
-0.3000001 1.44329E-17 -0.6500002 0
-0.2500001 1.332268E-17 -0.6000001 0
-0.2000001 1.221246E-17 -0.5500001 0
-0.15 1.110223E-17 -0.5000001 0
-0.1 9.992009E-18 -0.4500001 0
-0.04999999 8.881786E-18 -0.4000001 0
-2.980233E-08 7.771564E-18 -0.3500001 0
-0.7000002 2.220447E-17 -1 0
-0.6500002 2.109424E-17 -0.9500002 0
-0.6000001 1.998402E-17 -0.9000002 0
-0.5500001 1.887379E-17 -0.8500001 0
-0.5000001 1.776357E-17 -0.8000002 0
-0.4500001 1.665335E-17 -0.7500002 0
-0.4000001 1.554313E-17 -0.7000002 0
-0.3500001 1.44329E-17 -0.6500002 0
-0.3 1.332268E-17 -0.6000001 0
-0.2500001 1.221246E-17 -0.5500001 0
-0.2 1.110223E-17 -0.5000001 0
-0.15 9.992009E-18 -0.4500001 0
-0.09999999 8.881786E-18 -0.4000001 0
-0.05000002 7.771564E-18 -0.3500001 0
0 6.66134E-18 -0.3000001 0
-0.7500002 2.220447E-17 -1 0
-0.7000002 2.109424E-17 -0.9500002 0
-0.6500002 1.998402E-17 -0.9000002 0
-0.6000001 1.88738E-17 -0.8500002 0
-0.5500001 1.776357E-17 -0.8000002 0
-0.5000001 1.665335E-17 -0.7500002 0
-0.4500001 1.554313E-17 -0.7000002 0
-0.4000001 1.44329E-17 -0.6500002 0
-0.3500001 1.332268E-17 -0.6000001 0
-0.3000001 1.221246E-17 -0.5500001 0
-0.2500001 1.110223E-17 -0.5000001 0
-0.2 9.992009E-18 -0.4500001 0
-0.15 8.881786E-18 -0.4000001 0
-0.1 7.771564E-18 -0.3500001 0
-0.05000002 6.66134E-18 -0.3000001 0
0 5.551116E-18 -0.2500001 0
-0.8000002 2.220447E-17 -1 0
-0.7500002 2.109424E-17 -0.9500002 0
-0.7000002 1.998402E-17 -0.9000002 0
-0.6500002 1.887379E-17 -0.8500002 0
-0.6000001 1.776357E-17 -0.8000002 0
-0.5500001 1.665335E-17 -0.7500002 0
-0.5000001 1.554313E-17 -0.7000002 0
-0.4500001 1.44329E-17 -0.6500002 0
-0.4000001 1.332268E-17 -0.6000001 0
-0.3500001 1.221246E-17 -0.5500002 0
-0.3000001 1.110223E-17 -0.5000001 0
-0.25 9.992009E-18 -0.4500001 0
-0.2 8.881786E-18 -0.4000001 0
-0.1500001 7.771564E-18 -0.3500001 0
-0.1 6.66134E-18 -0.3000001 0
-0.05000001 5.551116E-18 -0.2500001 0
1.490116E-08 4.440893E-18 -0.2 0
-0.8500002 2.220447E-17 -1 0
-0.8000002 2.109424E-17 -0.9500002 0
-0.7500002 1.998402E-17 -0.9000002 0
-0.7000002 1.88738E-17 -0.8500002 0
-0.6500002 1.776357E-17 -0.8000002 0
-0.6000001 1.665335E-17 -0.7500002 0
-0.5500001 1.554312E-17 -0.7000001 0
-0.5000001 1.44329E-17 -0.6500002 0
-0.4500001 1.332268E-17 -0.6000001 0
-0.4000001 1.221246E-17 -0.5500001 0
-0.3500001 1.110223E-17 -0.5000001 0
-0.3 9.992009E-18 -0.4500001 0
-0.25 8.881786E-18 -0.4000001 0
-0.2000001 7.771564E-18 -0.3500001 0
-0.15 6.66134E-18 -0.3000001 0
-0.1 5.551116E-18 -0.2500001 0
-0.04999999 4.440893E-18 -0.2 0
2.980233E-08 3.330669E-18 -0.15 0
-0.9000002 2.220447E-17 -1 0
-0.8500002 2.109424E-17 -0.9500002 0
-0.8000002 1.998402E-17 -0.9000002 0
-0.7500002 1.88738E-17 -0.8500002 0
-0.7000002 1.776357E-17 -0.8000002 0
-0.6500002 1.665335E-17 -0.7500002 0
-0.6000001 1.554313E-17 -0.7000001 0
-0.5500001 1.44329E-17 -0.6500002 0
-0.5000001 1.332268E-17 -0.6000001 0
-0.4500001 1.221246E-17 -0.5500002 0
-0.4000001 1.110223E-17 -0.5000001 0
-0.3500001 9.992009E-18 -0.4500001 0
-0.3 8.881786E-18 -0.4000001 0
-0.2500001 7.771564E-18 -0.3500001 0
-0.2000001 6.66134E-18 -0.3000001 0
-0.15 5.551116E-18 -0.2500001 0
-0.1 4.440893E-18 -0.2 0
-0.04999999 3.330669E-18 -0.15 0
-2.235175E-08 2.220447E-18 -0.1 0
-0.9500002 2.220447E-17 -1 0
-0.9000002 2.109424E-17 -0.9500002 0
-0.8500002 1.998402E-17 -0.9000002 0
-0.8000002 1.88738E-17 -0.8500002 0
-0.7500002 1.776357E-17 -0.8000002 0
-0.7000002 1.665335E-17 -0.7500002 0
-0.6500002 1.554313E-17 -0.7000002 0
-0.6000001 1.44329E-17 -0.6500002 0
-0.5500001 1.332268E-17 -0.6000001 0
-0.5000001 1.221246E-17 -0.5500001 0
-0.4500001 1.110223E-17 -0.5000001 0
-0.4000001 9.992009E-18 -0.4500001 0
-0.3500001 8.881786E-18 -0.4000001 0
-0.3000001 7.771564E-18 -0.3500001 0
-0.2500001 6.66134E-18 -0.3000001 0
-0.2 5.551116E-18 -0.2500001 0
-0.15 4.440893E-18 -0.2 0
-0.1 3.33067E-18 -0.15 0
-0.05000003 2.220447E-18 -0.1 0
-1.117587E-08 1.110224E-18 -0.05000002 0
-1 2.220447E-17 -1 0
-0.9500002 2.109424E-17 -0.9500002 0
-0.9000002 1.998402E-17 -0.9000002 0
-0.8500002 1.88738E-17 -0.8500002 0
-0.8000002 1.776357E-17 -0.8000002 0
-0.7500002 1.665335E-17 -0.7500002 0
-0.7000002 1.554313E-17 -0.7000002 0
-0.6500002 1.44329E-17 -0.6500002 0
-0.6000001 1.332268E-17 -0.6000001 0
-0.5500001 1.221246E-17 -0.5500001 0
-0.5000001 1.110223E-17 -0.5000001 0
-0.4500001 9.992009E-18 -0.4500001 0
-0.4000001 8.881786E-18 -0.4000001 0
-0.3500001 7.771564E-18 -0.3500001 0
-0.3000001 6.66134E-18 -0.3000001 0
-0.2500001 5.551116E-18 -0.2500001 0
-0.2 4.440893E-18 -0.2 0
-0.15 3.330669E-18 -0.15 0
-0.1 2.220447E-18 -0.1 0
-0.05000002 1.110224E-18 -0.05000002 0
0 0 0 0
-1 6.661338E-17 -3 0
-1 6.550316E-17 -2.95 0
-0.9500002 6.550316E-17 -2.95 0
-1 6.439294E-17 -2.9 0
-0.9500002 6.439293E-17 -2.9 0
-0.9000002 6.439294E-17 -2.9 0
-1 6.328272E-17 -2.85 0
-0.9500002 6.328271E-17 -2.85 0
-0.9000002 6.328272E-17 -2.85 0
-0.8500001 6.328272E-17 -2.85 0
-1 6.217249E-17 -2.8 0
-0.9500002 6.217249E-17 -2.8 0
-0.9000002 6.21725E-17 -2.8 0
-0.8500002 6.217249E-17 -2.8 0
-0.8000002 6.217249E-17 -2.8 0
-1 6.106227E-17 -2.75 0
-0.9500002 6.106227E-17 -2.75 0
-0.9000002 6.106227E-17 -2.75 0
-0.8500002 6.106227E-17 -2.75 0
-0.8000002 6.106227E-17 -2.75 0
-0.7500002 6.106227E-17 -2.75 0
-1 5.995205E-17 -2.7 0
-0.9500002 5.995205E-17 -2.7 0
-0.9000002 5.995205E-17 -2.7 0
-0.8500002 5.995205E-17 -2.7 0
-0.8000002 5.995205E-17 -2.7 0
-0.7500002 5.995204E-17 -2.7 0
-0.7000002 5.995205E-17 -2.7 0
-1 5.884182E-17 -2.65 0
-0.9500002 5.884182E-17 -2.65 0
-0.9000002 5.884182E-17 -2.65 0
-0.8500002 5.884182E-17 -2.65 0
-0.8000002 5.884182E-17 -2.65 0
-0.7500002 5.884182E-17 -2.65 0
-0.7000002 5.884182E-17 -2.65 0
-0.6500002 5.884182E-17 -2.65 0
-1 5.77316E-17 -2.6 0
-0.9500002 5.77316E-17 -2.6 0
-0.9000002 5.77316E-17 -2.6 0
-0.8500001 5.77316E-17 -2.6 0
-0.8000002 5.77316E-17 -2.6 0
-0.7500001 5.77316E-17 -2.6 0
-0.7000001 5.77316E-17 -2.6 0
-0.6500002 5.77316E-17 -2.6 0
-0.6000001 5.77316E-17 -2.6 0
-1 5.662137E-17 -2.55 0
-0.9500002 5.662137E-17 -2.55 0
-0.9000002 5.662137E-17 -2.55 0
-0.8500001 5.662137E-17 -2.55 0
-0.8000002 5.662137E-17 -2.55 0
-0.7500002 5.662137E-17 -2.55 0
-0.7000002 5.662137E-17 -2.55 0
-0.6500002 5.662137E-17 -2.55 0
-0.6000001 5.662137E-17 -2.55 0
-0.5500001 5.662137E-17 -2.55 0
-1 5.551115E-17 -2.5 0
-0.9500002 5.551115E-17 -2.5 0
-0.9000002 5.551115E-17 -2.5 0
-0.8500002 5.551115E-17 -2.5 0
-0.8000002 5.551115E-17 -2.5 0
-0.7500002 5.551115E-17 -2.5 0
-0.7000002 5.551115E-17 -2.5 0
-0.6500002 5.551115E-17 -2.5 0
-0.6000001 5.551115E-17 -2.5 0
-0.5500001 5.551115E-17 -2.5 0
-0.5000001 5.551115E-17 -2.5 0
-1 5.440093E-17 -2.45 0
-0.9500002 5.440093E-17 -2.45 0
-0.9000002 5.440093E-17 -2.45 0
-0.8500002 5.440093E-17 -2.45 0
-0.8000002 5.440093E-17 -2.45 0
-0.7500002 5.440093E-17 -2.45 0
-0.7000002 5.440093E-17 -2.45 0
-0.6500002 5.440093E-17 -2.45 0
-0.6000001 5.440093E-17 -2.45 0
-0.5500001 5.440093E-17 -2.45 0
-0.5000001 5.440093E-17 -2.45 0
-0.4500001 5.440093E-17 -2.45 0
-1 5.329071E-17 -2.4 0
-0.9500002 5.329071E-17 -2.4 0
-0.9000002 5.32907E-17 -2.4 0
-0.8500002 5.32907E-17 -2.4 0
-0.8000002 5.32907E-17 -2.4 0
-0.7500002 5.32907E-17 -2.4 0
-0.7000002 5.32907E-17 -2.4 0
-0.6500002 5.32907E-17 -2.4 0
-0.6000001 5.32907E-17 -2.4 0
-0.5500001 5.32907E-17 -2.4 0
-0.5000001 5.32907E-17 -2.4 0
-0.4500001 5.32907E-17 -2.4 0
-0.4000001 5.329071E-17 -2.4 0
-1 5.218048E-17 -2.35 0
-0.9500002 5.218048E-17 -2.35 0
-0.9000002 5.218048E-17 -2.35 0
-0.8500002 5.218048E-17 -2.35 0
-0.8000002 5.218048E-17 -2.35 0
-0.7500002 5.218048E-17 -2.35 0
-0.7000002 5.218048E-17 -2.35 0
-0.6500002 5.218048E-17 -2.35 0
-0.6000001 5.218048E-17 -2.35 0
-0.5500001 5.218048E-17 -2.35 0
-0.5000001 5.218048E-17 -2.35 0
-0.4500001 5.218048E-17 -2.35 0
-0.4000001 5.218048E-17 -2.35 0
-0.3500001 5.218048E-17 -2.35 0
-1 5.107026E-17 -2.3 0
-0.9500002 5.107026E-17 -2.3 0
-0.9000002 5.107026E-17 -2.3 0
-0.8500001 5.107026E-17 -2.3 0
-0.8000002 5.107026E-17 -2.3 0
-0.7500002 5.107026E-17 -2.3 0
-0.7000002 5.107026E-17 -2.3 0
-0.6500002 5.107026E-17 -2.3 0
-0.6000001 5.107026E-17 -2.3 0
-0.5500001 5.107026E-17 -2.3 0
-0.5000001 5.107026E-17 -2.3 0
-0.4500001 5.107026E-17 -2.3 0
-0.4000001 5.107026E-17 -2.3 0
-0.3500001 5.107026E-17 -2.3 0
-0.3000001 5.107026E-17 -2.3 0
-1 4.996003E-17 -2.25 0
-0.9500002 4.996003E-17 -2.25 0
-0.9000002 4.996003E-17 -2.25 0
-0.8500002 4.996003E-17 -2.25 0
-0.8000002 4.996003E-17 -2.25 0
-0.7500002 4.996003E-17 -2.25 0
-0.7000002 4.996003E-17 -2.25 0
-0.6500002 4.996003E-17 -2.25 0
-0.6000001 4.996003E-17 -2.25 0
-0.5500001 4.996003E-17 -2.25 0
-0.5000001 4.996003E-17 -2.25 0
-0.4500001 4.996003E-17 -2.25 0
-0.4000001 4.996003E-17 -2.25 0
-0.3500001 4.996003E-17 -2.25 0
-0.3000001 4.996003E-17 -2.25 0
-0.2500001 4.996003E-17 -2.25 0
-1 4.884981E-17 -2.2 0
-0.9500002 4.884981E-17 -2.2 0
-0.9000002 4.884981E-17 -2.2 0
-0.8500002 4.884981E-17 -2.2 0
-0.8000002 4.884981E-17 -2.2 0
-0.7500002 4.884981E-17 -2.2 0
-0.7000002 4.884981E-17 -2.2 0
-0.6500002 4.884981E-17 -2.2 0
-0.6000001 4.884981E-17 -2.2 0
-0.5500002 4.884981E-17 -2.2 0
-0.5000001 4.884981E-17 -2.2 0
-0.4500001 4.884981E-17 -2.2 0
-0.4000001 4.884981E-17 -2.2 0
-0.3500001 4.884981E-17 -2.2 0
-0.3000001 4.884981E-17 -2.2 0
-0.2500001 4.884981E-17 -2.2 0
-0.2 4.884981E-17 -2.2 0
-1 4.773959E-17 -2.15 0
-0.9500002 4.773959E-17 -2.15 0
-0.9000002 4.773959E-17 -2.15 0
-0.8500002 4.773959E-17 -2.15 0
-0.8000002 4.773958E-17 -2.15 0
-0.7500002 4.773959E-17 -2.15 0
-0.7000001 4.773959E-17 -2.15 0
-0.6500002 4.773959E-17 -2.15 0
-0.6000001 4.773959E-17 -2.15 0
-0.5500001 4.773959E-17 -2.15 0
-0.5000001 4.773959E-17 -2.15 0
-0.4500001 4.773959E-17 -2.15 0
-0.4000001 4.773958E-17 -2.15 0
-0.3500001 4.773959E-17 -2.15 0
-0.3000001 4.773959E-17 -2.15 0
-0.2500001 4.773959E-17 -2.15 0
-0.2 4.773959E-17 -2.15 0
-0.15 4.773959E-17 -2.15 0.1107288
-1 4.662936E-17 -2.1 0
-0.9500002 4.662937E-17 -2.1 0
-0.9000002 4.662937E-17 -2.1 0
-0.8500002 4.662937E-17 -2.1 0
-0.8000002 4.662936E-17 -2.1 0
-0.7500002 4.662936E-17 -2.1 0
-0.7000001 4.662936E-17 -2.1 0
